24.378327 2580.286478 191.087453
24.104263 2580.642381 193.036355
23.830198 2580.998284 194.985258
23.556134 2581.354188 196.934161
23.282069 2581.710091 198.883063
23.008005 2582.065994 200.831966
22.733940 2582.421897 202.780869
22.459876 2582.777800 204.729771
22.185811 2583.133703 206.678674
21.911747 2583.489606 208.627577
21.637683 2583.845509 210.576479
21.363618 2584.201413 212.525382
21.089554 2584.557316 214.474285
20.815489 2584.913219 216.423187
20.541425 2585.269122 218.372090
20.267360 2585.625025 220.320993
19.993296 2585.980928 222.269895
19.719232 2586.336831 224.218798
19.445167 2586.692734 226.167701
19.171103 2587.048638 228.116604
18.897038 2587.404541 230.065506
18.622974 2587.760444 232.014409
18.348909 2588.116347 233.963312
18.074845 2588.472250 235.912214
17.800780 2588.828153 237.861117
17.526716 2589.184056 239.810020
17.252652 2589.539959 241.758922
16.978587 2589.895863 243.707825
16.704523 2590.251766 245.656728
16.430458 2590.607669 247.605630
16.000000 2591.166667 250.666667
14.000000 2591.166667 250.666667
12.000000 2591.166667 250.666667
10.000000 2591.166667 250.666667
8.000000 2591.166667 250.666667
6.000000 2591.166667 250.666667
4.000000 2591.166667 250.666667
0.000000 2591.166667 250.666667
-0.055855 2589.167533 250.685285
-0.111709 2587.168400 250.703903
-0.167564 2585.169267 250.722521
-0.223419 2583.170134 250.741140
-0.279274 2581.171001 250.759758
-0.335128 2579.171867 250.778376
-0.390983 2577.172734 250.796994
-0.446838 2575.173601 250.815613
-0.502692 2573.174468 250.834231
-0.558547 2571.175335 250.852849
-0.614402 2569.176201 250.871467
-0.670257 2567.177068 250.890086
-0.726111 2565.177935 250.908704
-0.781966 2563.178802 250.927322
-0.837821 2561.179668 250.945940
-0.893675 2559.180535 250.964558
-0.949530 2557.181402 250.983177
-1.005385 2555.182269 251.001795
-1.061240 2553.183136 251.020413
-1.117094 2551.184002 251.039031
-1.172949 2549.184869 251.057650
-1.228804 2547.185736 251.076268
-1.284658 2545.186603 251.094886
-1.340513 2543.187469 251.113504
-1.396368 2541.188336 251.132123
-1.452222 2539.189203 251.150741
-1.508077 2537.190070 251.169359
-1.563932 2535.190937 251.187977
-1.619787 2533.191803 251.206596
-1.675641 2531.192670 251.225214
-1.731496 2529.193537 251.243832
-1.787351 2527.194404 251.262450
-1.843205 2525.195271 251.281068
-1.899060 2523.196137 251.299687
-1.954915 2521.197004 251.318305
-2.010770 2519.197871 251.336923
-2.066624 2517.198738 251.355541
-2.122479 2515.199604 251.374160
-2.178334 2513.200471 251.392778
-2.234188 2511.201338 251.411396
-2.290043 2509.202205 251.430014
-2.345898 2507.203072 251.448633
-2.401753 2505.203938 251.467251
-2.457607 2503.204805 251.485869
-2.513462 2501.205672 251.504487
-2.569317 2499.206539 251.523106
-2.625171 2497.207406 251.541724
-2.681026 2495.208272 251.560342
-2.736881 2493.209139 251.578960
-2.792736 2491.210006 251.597579
-2.848590 2489.210873 251.616197
-2.904445 2487.211739 251.634815
-2.960300 2485.212606 251.653433
-3.016154 2483.213473 251.672051
-3.072009 2481.214340 251.690670
-3.127864 2479.215207 251.709288
-3.183719 2477.216073 251.727906
-3.239573 2475.216940 251.746524
-3.295428 2473.217807 251.765143
-3.351283 2471.218674 251.783761
-3.407137 2469.219541 251.802379
-3.462992 2467.220407 251.820997
-3.518847 2465.221274 251.839616
-3.574702 2463.222141 251.858234
-3.630556 2461.223008 251.876852
-3.686411 2459.223874 251.895470
-3.742266 2457.224741 251.914089
-3.798120 2455.225608 251.932707
-3.853975 2453.226475 251.951325
-3.909830 2451.227342 251.969943
-4.000000 2448.000000 252.000000
-4.189849 2447.186361 250.182873
-4.379698 2446.372722 248.365747
-4.569547 2445.559084 246.548620
-4.759396 2444.745445 244.731493
-4.949245 2443.931806 242.914367
-5.139094 2443.118167 241.097240
-5.328943 2442.304528 239.280113
-5.518792 2441.490890 237.462987
-5.708641 2440.677251 235.645860
-5.898491 2439.863612 233.828734
-6.088340 2439.049973 232.011607
-6.278189 2438.236334 230.194480
-6.468038 2437.422696 228.377354
-6.657887 2436.609057 226.560227
-6.847736 2435.795418 224.743100
-7.037585 2434.981779 222.925974
-7.227434 2434.168140 221.108847
-7.417283 2433.354502 219.291720
-7.607132 2432.540863 217.474594
-7.796981 2431.727224 215.657467
-7.986830 2430.913585 213.840340
-8.176679 2430.099946 212.023214
-8.366528 2429.286308 210.206087
-8.556377 2428.472669 208.388961
-8.746226 2427.659030 206.571834
-8.936075 2426.845391 204.754707
-9.125924 2426.031752 202.937581
-9.315773 2425.218114 201.120454
-9.505623 2424.404475 199.303327
-9.695472 2423.590836 197.486201
-9.885321 2422.777197 195.669074
-10.075170 2421.963559 193.851947
-10.265019 2421.149920 192.034821
-10.454868 2420.336281 190.217694
-10.644717 2419.522642 188.400567
-10.834566 2418.709003 186.583441
-11.024415 2417.895365 184.766314
-11.214264 2417.081726 182.949187
-11.404113 2416.268087 181.132061
-11.593962 2415.454448 179.314934
-11.783811 2414.640809 177.497808
-11.973660 2413.827171 175.680681
-12.163509 2413.013532 173.863554
-12.353358 2412.199893 172.046428
-12.543207 2411.386254 170.229301
-12.733056 2410.572615 168.412174
-12.922905 2409.758977 166.595048
-13.112755 2408.945338 164.777921
-13.302604 2408.131699 162.960794
-13.492453 2407.318060 161.143668
-13.682302 2406.504421 159.326541
-13.872151 2405.690783 157.509414
-14.062000 2404.877144 155.692288
-14.251849 2404.063505 153.875161
-14.441698 2403.249866 152.058034
-14.631547 2402.436227 150.240908
-14.821396 2401.622589 148.423781
-15.011245 2400.808950 146.606655
-15.201094 2399.995311 144.789528
-15.390943 2399.181672 142.972401
-15.580792 2398.368033 141.155275
-15.770641 2397.554395 139.338148
-15.960490 2396.740756 137.521021
-16.150339 2395.927117 135.703895
-16.340188 2395.113478 133.886768
-16.530037 2394.299839 132.069641
-16.719887 2393.486201 130.252515
-16.909736 2392.672562 128.435388
-17.099585 2391.858923 126.618261
-17.289434 2391.045284 124.801135
-17.479283 2390.231645 122.984008
-17.669132 2389.418007 121.166882
-17.858981 2388.604368 119.349755
-18.048830 2387.790729 117.532628
-18.238679 2386.977090 115.715502
-18.428528 2386.163451 113.898375
-18.618377 2385.349813 112.081248
-18.808226 2384.536174 110.264122
-18.998075 2383.722535 108.446995
-19.187924 2382.908896 106.629868
-19.377773 2382.095257 104.812742
-19.567622 2381.281619 102.995615
-19.757471 2380.467980 101.178488
-19.947320 2379.654341 99.361362
-20.137169 2378.840702 97.544235
-20.327019 2378.027063 95.727108
-20.516868 2377.213425 93.909982
-20.706717 2376.399786 92.092855
-20.896566 2375.586147 90.275729
-21.086415 2374.772508 88.458602
-21.276264 2373.958870 86.641475
-21.466113 2373.145231 84.824349
-21.655962 2372.331592 83.007222
-21.845811 2371.517953 81.190095
-22.035660 2370.704314 79.372969
-22.225509 2369.890676 77.555842
-22.415358 2369.077037 75.738715
-22.605207 2368.263398 73.921589
-22.795056 2367.449759 72.104462
-22.984905 2366.636120 70.287335
-23.174754 2365.822482 68.470209
-23.364603 2365.008843 66.653082
-23.554452 2364.195204 64.835956
-23.744301 2363.381565 63.018829
-23.934151 2362.567926 61.201702
-24.124000 2361.754288 59.384576
-24.313849 2360.940649 57.567449
-24.503698 2360.127010 55.750322
-24.693547 2359.313371 53.933196
-24.883396 2358.499732 52.116069
-25.073245 2357.686094 50.298942
-25.263094 2356.872455 48.481816
-25.452943 2356.058816 46.664689
-25.642792 2355.245177 44.847562
-25.832641 2354.431538 43.030436
-26.022490 2353.617900 41.213309
-26.212339 2352.804261 39.396182
-26.402188 2351.990622 37.579056
-26.592037 2351.176983 35.761929
-26.781886 2350.363344 33.944803
-26.971735 2349.549706 32.127676
-27.161584 2348.736067 30.310549
-27.351433 2347.922428 28.493423
-27.541283 2347.108789 26.676296
-27.731132 2346.295150 24.859169
-27.920981 2345.481512 23.042043
-28.110830 2344.667873 21.224916
-28.300679 2343.854234 19.407789
-28.490528 2343.040595 17.590663
-28.680377 2342.226956 15.773536
-28.870226 2341.413318 13.956409
-29.060075 2340.599679 12.139283
-29.249924 2339.786040 10.322156
-29.439773 2338.972401 8.505029
-29.629622 2338.158762 6.687903
-29.819471 2337.345124 4.870776
-30.009320 2336.531485 3.053650
-30.199169 2335.717846 1.236523
-30.389018 2334.904207 -0.580604
-30.578867 2334.090568 -2.397730
-30.768716 2333.276930 -4.214857
-30.958565 2332.463291 -6.031984
-31.148415 2331.649652 -7.849110
-31.338264 2330.836013 -9.666237
-31.528113 2330.022375 -11.483364
-31.717962 2329.208736 -13.300490
-32.000000 2328.000000 -16.000000
-32.123915 2327.256510 -17.852530
-32.247830 2326.513019 -19.705060
-32.371745 2325.769529 -21.557590
-32.495660 2325.026039 -23.410120
-32.619575 2324.282549 -25.262650
-32.743490 2323.539058 -27.115180
-32.867405 2322.795568 -28.967710
-32.991320 2322.052078 -30.820240
-33.115235 2321.308587 -32.672770
-33.239150 2320.565097 -34.525300
-33.363066 2319.821607 -36.377830
-33.486981 2319.078117 -38.230360
-33.610896 2318.334626 -40.082889
-33.734811 2317.591136 -41.935419
-33.858726 2316.847646 -43.787949
-33.982641 2316.104155 -45.640479
-34.106556 2315.360665 -47.493009
-34.230471 2314.617175 -49.345539
-34.354386 2313.873685 -51.198069
-34.478301 2313.130194 -53.050599
-34.602216 2312.386704 -54.903129
-34.726131 2311.643214 -56.755659
-34.850046 2310.899723 -58.608189
-34.973961 2310.156233 -60.460719
-35.097876 2309.412743 -62.313249
-35.221791 2308.669253 -64.165779
-35.345706 2307.925762 -66.018309
-35.469621 2307.182272 -67.870839
-35.593536 2306.438782 -69.723369
-35.717451 2305.695291 -71.575899
-35.841366 2304.951801 -73.428429
-35.965282 2304.208311 -75.280959
-36.089197 2303.464821 -77.133489
-36.213112 2302.721330 -78.986019
-36.337027 2301.977840 -80.838549
-36.460942 2301.234350 -82.691079
-36.584857 2300.490859 -84.543609
-36.708772 2299.747369 -86.396139
-36.832687 2299.003879 -88.248668
-36.956602 2298.260389 -90.101198
-37.080517 2297.516898 -91.953728
-37.204432 2296.773408 -93.806258
-37.328347 2296.029918 -95.658788
-37.452262 2295.286427 -97.511318
-37.576177 2294.542937 -99.363848
-37.700092 2293.799447 -101.216378
-37.824007 2293.055957 -103.068908
-37.947922 2292.312466 -104.921438
-38.071837 2291.568976 -106.773968
-38.195752 2290.825486 -108.626498
-38.319667 2290.081995 -110.479028
-38.443582 2289.338505 -112.331558
-38.567498 2288.595015 -114.184088
-38.691413 2287.851525 -116.036618
-38.815328 2287.108034 -117.889148
-38.939243 2286.364544 -119.741678
-39.063158 2285.621054 -121.594208
-39.187073 2284.877563 -123.446738
-39.310988 2284.134073 -125.299268
-39.434903 2283.390583 -127.151798
-39.558818 2282.647093 -129.004328
-39.682733 2281.903602 -130.856858
-39.806648 2281.160112 -132.709388
-39.930563 2280.416622 -134.561918
-40.054478 2279.673131 -136.414447
-40.178393 2278.929641 -138.266977
-40.302308 2278.186151 -140.119507
-40.426223 2277.442661 -141.972037
-40.550138 2276.699170 -143.824567
-40.674053 2275.955680 -145.677097
-40.797968 2275.212190 -147.529627
-40.921883 2274.468699 -149.382157
-41.045798 2273.725209 -151.234687
-41.169714 2272.981719 -153.087217
-41.293629 2272.238229 -154.939747
-41.417544 2271.494738 -156.792277
-41.541459 2270.751248 -158.644807
-41.665374 2270.007758 -160.497337
-41.789289 2269.264267 -162.349867
-41.913204 2268.520777 -164.202397
-42.037119 2267.777287 -166.054927
-42.161034 2267.033797 -167.907457
-42.284949 2266.290306 -169.759987
-42.408864 2265.546816 -171.612517
-42.532779 2264.803326 -173.465047
-42.656694 2264.059835 -175.317577
-42.780609 2263.316345 -177.170107
-42.904524 2262.572855 -179.022637
-43.028439 2261.829365 -180.875167
-43.152354 2261.085874 -182.727696
-43.276269 2260.342384 -184.580226
-43.400184 2259.598894 -186.432756
-43.524099 2258.855403 -188.285286
-43.648014 2258.111913 -190.137816
-43.771930 2257.368423 -191.990346
-43.895845 2256.624933 -193.842876
-44.019760 2255.881442 -195.695406
-44.143675 2255.137952 -197.547936
-44.267590 2254.394462 -199.400466
-44.391505 2253.650971 -201.252996
-44.515420 2252.907481 -203.105526
-44.639335 2252.163991 -204.958056
-44.763250 2251.420501 -206.810586
-44.887165 2250.677010 -208.663116
-45.011080 2249.933520 -210.515646
-45.134995 2249.190030 -212.368176
-45.258910 2248.446539 -214.220706
-45.382825 2247.703049 -216.073236
-45.506740 2246.959559 -217.925766
-45.630655 2246.216069 -219.778296
-45.754570 2245.472578 -221.630826
-45.878485 2244.729088 -223.483356
-46.002400 2243.985598 -225.335886
-46.126315 2243.242107 -227.188416
-46.250230 2242.498617 -229.040946
-46.374146 2241.755127 -230.893475
-46.498061 2241.011637 -232.746005
-46.621976 2240.268146 -234.598535
-46.745891 2239.524656 -236.451065
-46.869806 2238.781166 -238.303595
-46.993721 2238.037675 -240.156125
-47.117636 2237.294185 -242.008655
-47.241551 2236.550695 -243.861185
-47.365466 2235.807205 -245.713715
-47.489381 2235.063714 -247.566245
-47.613296 2234.320224 -249.418775
-47.737211 2233.576734 -251.271305
-47.861126 2232.833243 -253.123835
-47.985041 2232.089753 -254.976365
-48.108956 2231.346263 -256.828895
-48.232871 2230.602773 -258.681425
-48.356786 2229.859282 -260.533955
-48.480701 2229.115792 -262.386485
-48.604616 2228.372302 -264.239015
-48.728531 2227.628811 -266.091545
-48.852446 2226.885321 -267.944075
-48.976362 2226.141831 -269.796605
-49.100277 2225.398341 -271.649135
-49.224192 2224.654850 -273.501665
-49.348107 2223.911360 -275.354195
-49.472022 2223.167870 -277.206725
-49.595937 2222.424379 -279.059254
-49.719852 2221.680889 -280.911784
-49.843767 2220.937399 -282.764314
-49.967682 2220.193909 -284.616844
-50.091597 2219.450418 -286.469374
-50.215512 2218.706928 -288.321904
-50.339427 2217.963438 -290.174434
-50.463342 2217.219947 -292.026964
-50.587257 2216.476457 -293.879494
-50.711172 2215.732967 -295.732024
-50.835087 2214.989477 -297.584554
-50.959002 2214.245986 -299.437084
-51.082917 2213.502496 -301.289614
-51.206832 2212.759006 -303.142144
-51.330747 2212.015515 -304.994674
-51.454662 2211.272025 -306.847204
-51.578578 2210.528535 -308.699734
-51.702493 2209.785045 -310.552264
-51.826408 2209.041554 -312.404794
-52.000000 2208.000000 -315.000000
-52.000000 2206.000193 -314.972186
-52.000000 2204.000387 -314.944373
-52.000000 2202.000580 -314.916559
-52.000000 2200.000774 -314.888745
-52.000000 2198.000967 -314.860931
-52.000000 2196.001160 -314.833118
-52.000000 2194.001354 -314.805304
-52.000000 2192.001547 -314.777490
-52.000000 2190.001741 -314.749677
-52.000000 2188.001934 -314.721863
-52.000000 2186.002128 -314.694049
-52.000000 2184.002321 -314.666235
-52.000000 2182.002514 -314.638422
-52.000000 2180.002708 -314.610608
-52.000000 2178.002901 -314.582794
-52.000000 2176.003095 -314.554980
-52.000000 2174.003288 -314.527167
-52.000000 2172.003481 -314.499353
-52.000000 2170.003675 -314.471539
-52.000000 2168.003868 -314.443726
-52.000000 2166.004062 -314.415912
-52.000000 2164.004255 -314.388098
-52.000000 2162.004448 -314.360284
-52.000000 2160.004642 -314.332471
-52.000000 2158.004835 -314.304657
-52.000000 2156.005029 -314.276843
-52.000000 2154.005222 -314.249030
-52.000000 2152.005415 -314.221216
-52.000000 2150.005609 -314.193402
-52.000000 2148.005802 -314.165588
-52.000000 2146.005996 -314.137775
-52.000000 2144.006189 -314.109961
-52.000000 2142.006383 -314.082147
-52.000000 2140.006576 -314.054333
-52.000000 2138.006769 -314.026520
-52.000000 2136.006963 -313.998706
-52.000000 2134.007156 -313.970892
-52.000000 2132.007350 -313.943079
-52.000000 2130.007543 -313.915265
-52.000000 2128.007736 -313.887451
-52.000000 2126.007930 -313.859637
-52.000000 2124.008123 -313.831824
-52.000000 2122.008317 -313.804010
-52.000000 2120.008510 -313.776196
-52.000000 2118.008703 -313.748383
-52.000000 2116.008897 -313.720569
-52.000000 2114.009090 -313.692755
-52.000000 2112.009284 -313.664941
-52.000000 2110.009477 -313.637128
-52.000000 2108.009671 -313.609314
-52.000000 2106.009864 -313.581500
-52.000000 2104.010057 -313.553686
-52.000000 2102.010251 -313.525873
-52.000000 2100.010444 -313.498059
-52.000000 2098.010638 -313.470245
-52.000000 2096.010831 -313.442432
-52.000000 2094.011024 -313.414618
-52.000000 2092.011218 -313.386804
-52.000000 2090.011411 -313.358990
-52.000000 2088.011605 -313.331177
-52.000000 2086.011798 -313.303363
-52.000000 2084.011991 -313.275549
-52.000000 2082.012185 -313.247736
-52.000000 2080.012378 -313.219922
-52.000000 2078.012572 -313.192108
-52.000000 2076.012765 -313.164294
-52.000000 2074.012958 -313.136481
-52.000000 2072.013152 -313.108667
-52.000000 2070.013345 -313.080853
-52.000000 2068.013539 -313.053039
-52.000000 2066.013732 -313.025226
-52.000000 2064.013926 -312.997412
-52.000000 2062.014119 -312.969598
-52.000000 2060.014312 -312.941785
-52.000000 2058.014506 -312.913971
-52.000000 2056.014699 -312.886157
-52.000000 2054.014893 -312.858343
-52.000000 2052.015086 -312.830530
-52.000000 2050.015279 -312.802716
-52.000000 2048.015473 -312.774902
-52.000000 2046.015666 -312.747089
-52.000000 2044.015860 -312.719275
-52.000000 2042.016053 -312.691461
-52.000000 2040.016246 -312.663647
-52.000000 2038.016440 -312.635834
-52.000000 2036.016633 -312.608020
-52.000000 2034.016827 -312.580206
-52.000000 2032.017020 -312.552392
-52.000000 2030.017214 -312.524579
-52.000000 2028.017407 -312.496765
-52.000000 2026.017600 -312.468951
-52.000000 2024.017794 -312.441138
-52.000000 2022.017987 -312.413324
-52.000000 2020.018181 -312.385510
-52.000000 2018.018374 -312.357696
-52.000000 2016.018567 -312.329883
-52.000000 2014.018761 -312.302069
-52.000000 2012.018954 -312.274255
-52.000000 2010.019148 -312.246442
-52.000000 2008.019341 -312.218628
-52.000000 2006.019534 -312.190814
-52.000000 2004.019728 -312.163000
-52.000000 2002.019921 -312.135187
-52.000000 2000.020115 -312.107373
-52.000000 1998.020308 -312.079559
-52.000000 1996.020501 -312.051746
-52.000000 1994.020695 -312.023932
-52.000000 1992.020888 -311.996118
-52.000000 1990.021082 -311.968304
-52.000000 1988.021275 -311.940491
-52.000000 1986.021469 -311.912677
-52.000000 1984.021662 -311.884863
-52.000000 1982.021855 -311.857049
-52.000000 1980.022049 -311.829236
-52.000000 1978.022242 -311.801422
-52.000000 1976.022436 -311.773608
-52.000000 1974.022629 -311.745795
-52.000000 1972.022822 -311.717981
-52.000000 1970.023016 -311.690167
-52.000000 1968.023209 -311.662353
-52.000000 1966.023403 -311.634540
-52.000000 1964.023596 -311.606726
-52.000000 1962.023789 -311.578912
-52.000000 1960.023983 -311.551099
-52.000000 1958.024176 -311.523285
-52.000000 1956.024370 -311.495471
-52.000000 1954.024563 -311.467657
-52.000000 1952.024756 -311.439844
-52.000000 1950.024950 -311.412030
-52.000000 1948.025143 -311.384216
-52.000000 1946.025337 -311.356402
-52.000000 1944.025530 -311.328589
-52.000000 1942.025724 -311.300775
-52.000000 1940.025917 -311.272961
-52.000000 1938.026110 -311.245148
-52.000000 1936.026304 -311.217334
-52.000000 1934.026497 -311.189520
-52.000000 1932.026691 -311.161706
-52.000000 1930.026884 -311.133893
-52.000000 1928.027077 -311.106079
-52.000000 1926.027271 -311.078265
-52.000000 1924.027464 -311.050452
-52.000000 1922.027658 -311.022638
-52.000000 1920.027851 -310.994824
-52.000000 1918.028044 -310.967010
-52.000000 1916.028238 -310.939197
-52.000000 1914.028431 -310.911383
-52.000000 1912.028625 -310.883569
-52.000000 1910.028818 -310.855755
-52.000000 1908.029012 -310.827942
-52.000000 1906.029205 -310.800128
-52.000000 1904.029398 -310.772314
-52.000000 1902.029592 -310.744501
-52.000000 1900.029785 -310.716687
-52.000000 1898.029979 -310.688873
-52.000000 1896.030172 -310.661059
-52.000000 1894.030365 -310.633246
-52.000000 1892.030559 -310.605432
-52.000000 1890.030752 -310.577618
-52.000000 1888.030946 -310.549805
-52.000000 1886.031139 -310.521991
-52.000000 1884.031332 -310.494177
-52.000000 1882.031526 -310.466363
-52.000000 1880.031719 -310.438550
-52.000000 1878.031913 -310.410736
-52.000000 1876.032106 -310.382922
-52.000000 1874.032299 -310.355108
-52.000000 1872.032493 -310.327295
-52.000000 1870.032686 -310.299481
-52.000000 1868.032880 -310.271667
-52.000000 1866.033073 -310.243854
-52.000000 1864.033267 -310.216040
-52.000000 1862.033460 -310.188226
-52.000000 1860.033653 -310.160412
-52.000000 1858.033847 -310.132599
-52.000000 1856.034040 -310.104785
-52.000000 1854.034234 -310.076971
-52.000000 1852.034427 -310.049158
-52.000000 1848.500000 -310.000000
-51.899888 1846.690482 -309.154056
-51.799777 1844.880963 -308.308113
-51.699665 1843.071445 -307.462169
-51.599553 1841.261926 -306.616226
-51.499442 1839.452408 -305.770282
-51.399330 1837.642889 -304.924338
-51.299218 1835.833371 -304.078395
-51.199107 1834.023852 -303.232451
-51.098995 1832.214334 -302.386507
-50.998883 1830.404815 -301.540564
-50.898772 1828.595297 -300.694620
-50.798660 1826.785779 -299.848677
-50.698548 1824.976260 -299.002733
-50.598437 1823.166742 -298.156789
-50.498325 1821.357223 -297.310846
-50.398213 1819.547705 -296.464902
-50.298102 1817.738186 -295.618958
-50.197990 1815.928668 -294.773015
-50.097878 1814.119149 -293.927071
-49.997767 1812.309631 -293.081128
-49.897655 1810.500112 -292.235184
-49.797543 1808.690594 -291.389240
-49.697432 1806.881076 -290.543297
-49.597320 1805.071557 -289.697353
-49.497208 1803.262039 -288.851409
-49.397097 1801.452520 -288.005466
-49.296985 1799.643002 -287.159522
-49.196873 1797.833483 -286.313579
-49.096762 1796.023965 -285.467635
-48.996650 1794.214446 -284.621691
-48.896538 1792.404928 -283.775748
-48.796427 1790.595409 -282.929804
-48.696315 1788.785891 -282.083860
-48.596203 1786.976372 -281.237917
-48.496092 1785.166854 -280.391973
-48.395980 1783.357336 -279.546030
-48.295868 1781.547817 -278.700086
-48.195756 1779.738299 -277.854142
-48.095645 1777.928780 -277.008199
-47.995533 1776.119262 -276.162255
-47.895421 1774.309743 -275.316312
-47.795310 1772.500225 -274.470368
-47.695198 1770.690706 -273.624424
-47.595086 1768.881188 -272.778481
-47.494975 1767.071669 -271.932537
-47.394863 1765.262151 -271.086593
-47.294751 1763.452633 -270.240650
-47.194640 1761.643114 -269.394706
-47.094528 1759.833596 -268.548763
-46.994416 1758.024077 -267.702819
-46.894305 1756.214559 -266.856875
-46.794193 1754.405040 -266.010932
-46.694081 1752.595522 -265.164988
-46.593970 1750.786003 -264.319044
-46.493858 1748.976485 -263.473101
-46.393746 1747.166966 -262.627157
-46.293635 1745.357448 -261.781214
-46.193523 1743.547930 -260.935270
-46.093411 1741.738411 -260.089326
-45.993300 1739.928893 -259.243383
-45.893188 1738.119374 -258.397439
-45.793076 1736.309856 -257.551495
-45.692965 1734.500337 -256.705552
-45.592853 1732.690819 -255.859608
-45.492741 1730.881300 -255.013665
-45.392630 1729.071782 -254.167721
-45.292518 1727.262263 -253.321777
-45.192406 1725.452745 -252.475834
-45.092295 1723.643227 -251.629890
-44.992183 1721.833708 -250.783947
-44.892071 1720.024190 -249.938003
-44.791960 1718.214671 -249.092059
-44.691848 1716.405153 -248.246116
-44.591736 1714.595634 -247.400172
-44.491625 1712.786116 -246.554228
-44.391513 1710.976597 -245.708285
-44.291401 1709.167079 -244.862341
-44.191290 1707.357560 -244.016398
-44.091178 1705.548042 -243.170454
-43.991066 1703.738524 -242.324510
-43.890955 1701.929005 -241.478567
-43.790843 1700.119487 -240.632623
-43.690731 1698.309968 -239.786679
-43.590620 1696.500450 -238.940736
-43.490508 1694.690931 -238.094792
-43.390396 1692.881413 -237.248849
-43.290285 1691.071894 -236.402905
-43.190173 1689.262376 -235.556961
-43.090061 1687.452857 -234.711018
-42.989950 1685.643339 -233.865074
-42.889838 1683.833820 -233.019130
-42.789726 1682.024302 -232.173187
-42.689615 1680.214784 -231.327243
-42.589503 1678.405265 -230.481300
-42.489391 1676.595747 -229.635356
-42.389280 1674.786228 -228.789412
-42.289168 1672.976710 -227.943469
-42.189056 1671.167191 -227.097525
-42.088945 1669.357673 -226.251581
-41.988833 1667.548154 -225.405638
-41.888721 1665.738636 -224.559694
-41.788610 1663.929117 -223.713751
-41.688498 1662.119599 -222.867807
-41.588386 1660.310081 -222.021863
-41.488275 1658.500562 -221.175920
-41.388163 1656.691044 -220.329976
-41.288051 1654.881525 -219.484033
-41.187940 1653.072007 -218.638089
-41.087828 1651.262488 -217.792145
-40.987716 1649.452970 -216.946202
-40.887605 1647.643451 -216.100258
-40.787493 1645.833933 -215.254314
-40.687381 1644.024414 -214.408371
-40.587269 1642.214896 -213.562427
-40.487158 1640.405378 -212.716484
-40.387046 1638.595859 -211.870540
-40.286934 1636.786341 -211.024596
-40.186823 1634.976822 -210.178653
-40.086711 1633.167304 -209.332709
-39.986599 1631.357785 -208.486765
-39.886488 1629.548267 -207.640822
-39.786376 1627.738748 -206.794878
-39.686264 1625.929230 -205.948935
-39.586153 1624.119711 -205.102991
-39.486041 1622.310193 -204.257047
-39.385929 1620.500675 -203.411104
-39.285818 1618.691156 -202.565160
-39.185706 1616.881638 -201.719216
-39.085594 1615.072119 -200.873273
-38.985483 1613.262601 -200.027329
-38.885371 1611.453082 -199.181386
-38.785259 1609.643564 -198.335442
-38.685148 1607.834045 -197.489498
-38.585036 1606.024527 -196.643555
-38.484924 1604.215008 -195.797611
-38.384813 1602.405490 -194.951668
-38.284701 1600.595972 -194.105724
-38.184589 1598.786453 -193.259780
-38.084478 1596.976935 -192.413837
-37.984366 1595.167416 -191.567893
-37.884254 1593.357898 -190.721949
-37.784143 1591.548379 -189.876006
-37.684031 1589.738861 -189.030062
-37.583919 1587.929342 -188.184119
-37.483808 1586.119824 -187.338175
-37.383696 1584.310305 -186.492231
-37.283584 1582.500787 -185.646288
-37.183473 1580.691268 -184.800344
-37.083361 1578.881750 -183.954400
-36.983249 1577.072232 -183.108457
-36.883138 1575.262713 -182.262513
-36.783026 1573.453195 -181.416570
-36.682914 1571.643676 -180.570626
-36.582803 1569.834158 -179.724682
-36.482691 1568.024639 -178.878739
-36.382579 1566.215121 -178.032795
-36.282468 1564.405602 -177.186851
-36.182356 1562.596084 -176.340908
-36.082244 1560.786565 -175.494964
-35.982133 1558.977047 -174.649021
-35.882021 1557.167529 -173.803077
-35.781909 1555.358010 -172.957133
-35.681798 1553.548492 -172.111190
-35.581686 1551.738973 -171.265246
-35.481574 1549.929455 -170.419302
-35.381463 1548.119936 -169.573359
-35.281351 1546.310418 -168.727415
-35.181239 1544.500899 -167.881472
-35.081128 1542.691381 -167.035528
-34.981016 1540.881862 -166.189584
-34.880904 1539.072344 -165.343641
-34.780793 1537.262826 -164.497697
-34.680681 1535.453307 -163.651754
-34.580569 1533.643789 -162.805810
-34.480458 1531.834270 -161.959866
-34.380346 1530.024752 -161.113923
-34.280234 1528.215233 -160.267979
-34.180123 1526.405715 -159.422035
-34.080011 1524.596196 -158.576092
-33.979899 1522.786678 -157.730148
-33.879788 1520.977159 -156.884205
-33.779676 1519.167641 -156.038261
-33.679564 1517.358123 -155.192317
-33.579453 1515.548604 -154.346374
-33.479341 1513.739086 -153.500430
-33.379229 1511.929567 -152.654486
-33.279117 1510.120049 -151.808543
-33.179006 1508.310530 -150.962599
-33.078894 1506.501012 -150.116656
-32.978782 1504.691493 -149.270712
-32.878671 1502.881975 -148.424768
-32.778559 1501.072456 -147.578825
-32.678447 1499.262938 -146.732881
-32.578336 1497.453420 -145.886937
-32.478224 1495.643901 -145.040994
-32.378112 1493.834383 -144.195050
-32.278001 1492.024864 -143.349107
-32.177889 1490.215346 -142.503163
-32.000000 1487.000000 -141.000000
-32.000000 1485.000402 -140.959908
-32.000000 1483.000804 -140.919816
-32.000000 1481.001206 -140.879723
-32.000000 1479.001608 -140.839631
-32.000000 1477.002009 -140.799539
-32.000000 1475.002411 -140.759447
-32.000000 1473.002813 -140.719355
-32.000000 1471.003215 -140.679262
-32.000000 1469.003617 -140.639170
-32.000000 1467.004019 -140.599078
-32.000000 1465.004421 -140.558986
-32.000000 1463.004823 -140.518894
-32.000000 1461.005225 -140.478801
-32.000000 1459.005626 -140.438709
-32.000000 1457.006028 -140.398617
-32.000000 1455.006430 -140.358525
-32.000000 1453.006832 -140.318433
-32.000000 1451.007234 -140.278341
-32.000000 1449.007636 -140.238248
-32.000000 1447.008038 -140.198156
-32.000000 1445.008440 -140.158064
-32.000000 1443.008841 -140.117972
-32.000000 1441.009243 -140.077880
-32.000000 1439.009645 -140.037787
-32.000000 1437.010047 -139.997695
-32.000000 1435.010449 -139.957603
-32.000000 1433.010851 -139.917511
-32.000000 1431.011253 -139.877419
-32.000000 1429.011655 -139.837326
-32.000000 1427.012057 -139.797234
-32.000000 1425.012458 -139.757142
-32.000000 1423.012860 -139.717050
-32.000000 1421.013262 -139.676958
-32.000000 1419.013664 -139.636865
-32.000000 1417.014066 -139.596773
-32.000000 1415.014468 -139.556681
-32.000000 1413.014870 -139.516589
-32.000000 1411.015272 -139.476497
-32.000000 1409.015674 -139.436404
-32.000000 1407.016075 -139.396312
-32.000000 1405.016477 -139.356220
-32.000000 1403.016879 -139.316128
-32.000000 1401.017281 -139.276036
-32.000000 1399.017683 -139.235944
-32.000000 1397.018085 -139.195851
-32.000000 1395.018487 -139.155759
-32.000000 1393.018889 -139.115667
-32.000000 1391.019291 -139.075575
-32.000000 1389.019692 -139.035483
-32.000000 1387.020094 -138.995390
-32.000000 1385.020496 -138.955298
-32.000000 1383.020898 -138.915206
-32.000000 1381.021300 -138.875114
-32.000000 1379.021702 -138.835022
-32.000000 1377.022104 -138.794929
-32.000000 1375.022506 -138.754837
-32.000000 1373.022908 -138.714745
-32.000000 1371.023309 -138.674653
-32.000000 1369.023711 -138.634561
-32.000000 1367.024113 -138.594468
-32.000000 1365.024515 -138.554376
-32.000000 1363.024917 -138.514284
-32.000000 1361.025319 -138.474192
-32.000000 1359.025721 -138.434100
-32.000000 1357.026123 -138.394007
-32.000000 1355.026524 -138.353915
-32.000000 1353.026926 -138.313823
-32.000000 1351.027328 -138.273731
-32.000000 1349.027730 -138.233639
-32.000000 1347.028132 -138.193547
-32.000000 1345.028534 -138.153454
-32.000000 1343.028936 -138.113362
-32.000000 1341.029338 -138.073270
-32.000000 1339.029740 -138.033178
-32.000000 1337.030141 -137.993086
-32.000000 1335.030543 -137.952993
-32.000000 1333.030945 -137.912901
-32.000000 1331.031347 -137.872809
-32.000000 1329.031749 -137.832717
-32.000000 1327.032151 -137.792625
-32.000000 1325.032553 -137.752532
-32.000000 1323.032955 -137.712440
-32.000000 1321.033357 -137.672348
-32.000000 1319.033758 -137.632256
-32.000000 1317.034160 -137.592164
-32.000000 1315.034562 -137.552071
-32.000000 1313.034964 -137.511979
-32.000000 1311.035366 -137.471887
-32.000000 1309.035768 -137.431795
-32.000000 1307.036170 -137.391703
-32.000000 1305.036572 -137.351610
-32.000000 1303.036974 -137.311518
-32.000000 1301.037375 -137.271426
-32.000000 1299.037777 -137.231334
-32.000000 1297.038179 -137.191242
-32.000000 1295.038581 -137.151149
-32.000000 1293.038983 -137.111057
-32.000000 1291.039385 -137.070965
-32.000000 1289.039787 -137.030873
-32.000000 1287.040189 -136.990781
-32.000000 1285.040591 -136.950689
-32.000000 1283.040992 -136.910596
-32.000000 1281.041394 -136.870504
-32.000000 1279.041796 -136.830412
-32.000000 1277.042198 -136.790320
-32.000000 1275.042600 -136.750228
-32.000000 1273.043002 -136.710135
-32.000000 1271.043404 -136.670043
-32.000000 1269.043806 -136.629951
-32.000000 1267.044207 -136.589859
-32.000000 1265.044609 -136.549767
-32.000000 1263.045011 -136.509674
-32.000000 1261.045413 -136.469582
-32.000000 1259.045815 -136.429490
-32.000000 1257.046217 -136.389398
-32.000000 1255.046619 -136.349306
-32.000000 1253.047021 -136.309213
-32.000000 1251.047423 -136.269121
-32.000000 1249.047824 -136.229029
-32.000000 1247.048226 -136.188937
-32.000000 1245.048628 -136.148845
-32.000000 1243.049030 -136.108752
-32.000000 1241.049432 -136.068660
-32.000000 1239.049834 -136.028568
-32.000000 1237.050236 -135.988476
-32.000000 1235.050638 -135.948384
-32.000000 1233.051040 -135.908292
-32.000000 1231.051441 -135.868199
-32.000000 1229.051843 -135.828107
-32.000000 1227.052245 -135.788015
-32.000000 1225.052647 -135.747923
-32.000000 1223.053049 -135.707831
-32.000000 1221.053451 -135.667738
-32.000000 1219.053853 -135.627646
-32.000000 1217.054255 -135.587554
-32.000000 1215.054657 -135.547462
-32.000000 1213.055058 -135.507370
-32.000000 1211.055460 -135.467277
-32.000000 1209.055862 -135.427185
-32.000000 1207.056264 -135.387093
-32.000000 1205.056666 -135.347001
-32.000000 1203.057068 -135.306909
-32.000000 1201.057470 -135.266816
-32.000000 1199.057872 -135.226724
-32.000000 1197.058274 -135.186632
-32.000000 1195.058675 -135.146540
-32.000000 1193.059077 -135.106448
-32.000000 1191.059479 -135.066355
-32.000000 1189.059881 -135.026263
-32.000000 1187.060283 -134.986171
-32.000000 1185.060685 -134.946079
-32.000000 1183.061087 -134.905987
-32.000000 1181.061489 -134.865895
-32.000000 1179.061890 -134.825802
-32.000000 1177.062292 -134.785710
-32.000000 1175.062694 -134.745618
-32.000000 1173.063096 -134.705526
-32.000000 1171.063498 -134.665434
-32.000000 1169.063900 -134.625341
-32.000000 1167.064302 -134.585249
-32.000000 1165.064704 -134.545157
-32.000000 1163.065106 -134.505065
-32.000000 1161.065507 -134.464973
-32.000000 1159.065909 -134.424880
-32.000000 1157.066311 -134.384788
-32.000000 1155.066713 -134.344696
-32.000000 1153.067115 -134.304604
-32.000000 1151.067517 -134.264512
-32.000000 1149.067919 -134.224419
-32.000000 1147.068321 -134.184327
-32.000000 1145.068723 -134.144235
-32.000000 1143.069124 -134.104143
-32.000000 1141.069526 -134.064051
-32.000000 1139.069928 -134.023958
-32.000000 1137.070330 -133.983866
-32.000000 1135.070732 -133.943774
-32.000000 1133.071134 -133.903682
-32.000000 1131.071536 -133.863590
-32.000000 1129.071938 -133.823497
-32.000000 1127.072340 -133.783405
-32.000000 1125.072741 -133.743313
-32.000000 1123.073143 -133.703221
-32.000000 1121.073545 -133.663129
-32.000000 1119.073947 -133.623037
-32.000000 1117.074349 -133.582944
-32.000000 1115.074751 -133.542852
-32.000000 1113.075153 -133.502760
-32.000000 1111.075555 -133.462668
-32.000000 1109.075957 -133.422576
-32.000000 1107.076358 -133.382483
-32.000000 1105.076760 -133.342391
-32.000000 1103.077162 -133.302299
-32.000000 1101.077564 -133.262207
-32.000000 1099.077966 -133.222115
-32.000000 1097.078368 -133.182022
-32.000000 1095.078770 -133.141930
-32.000000 1093.079172 -133.101838
-32.000000 1091.079573 -133.061746
-32.000000 1088.000000 -133.000000
-32.000000 1086.000000 -133.000000
-32.000000 1084.000000 -133.000000
-32.000000 1082.000000 -133.000000
-32.000000 1080.000000 -133.000000
-32.000000 1078.000000 -133.000000
-32.000000 1076.000000 -133.000000
-32.000000 1074.000000 -133.000000
-32.000000 1072.000000 -133.000000
-32.000000 1070.000000 -133.000000
-32.000000 1068.000000 -133.000000
-32.000000 1066.000000 -133.000000
-32.000000 1064.000000 -133.000000
-32.000000 1062.000000 -133.000000
-32.000000 1060.000000 -133.000000
-32.000000 1058.000000 -133.000000
-32.000000 1056.000000 -133.000000
-32.000000 1054.000000 -133.000000
-32.000000 1052.000000 -133.000000
-32.000000 1050.000000 -133.000000
-32.000000 1048.000000 -133.000000
-32.000000 1046.000000 -133.000000
-32.000000 1044.000000 -133.000000
-32.000000 1042.000000 -133.000000
-32.000000 1040.000000 -133.000000
-32.000000 1038.000000 -133.000000
-32.000000 1036.000000 -133.000000
-32.000000 1034.000000 -133.000000
-32.000000 1032.000000 -133.000000
-32.000000 1030.000000 -133.000000
-32.000000 1028.000000 -133.000000
-32.000000 1026.000000 -133.000000
-32.000000 1024.000000 -133.000000
-32.000000 1022.000000 -133.000000
-32.000000 1020.000000 -133.000000
-32.000000 1018.000000 -133.000000
-32.000000 1016.000000 -133.000000
-32.000000 1014.000000 -133.000000
-32.000000 1012.000000 -133.000000
-32.000000 1010.000000 -133.000000
-32.000000 1008.000000 -133.000000
-32.000000 1006.000000 -133.000000
-32.000000 1004.000000 -133.000000
-32.000000 1002.000000 -133.000000
-32.000000 1000.000000 -133.000000
-32.000000 998.000000 -133.000000
-32.000000 996.000000 -133.000000
-32.000000 994.000000 -133.000000
-32.000000 992.000000 -133.000000
-32.000000 990.000000 -133.000000
-32.000000 988.000000 -133.000000
-32.000000 986.000000 -133.000000
-32.000000 984.000000 -133.000000
-32.000000 982.000000 -133.000000
-32.000000 980.000000 -133.000000
-32.000000 978.000000 -133.000000
-32.000000 976.000000 -133.000000
-32.000000 974.000000 -133.000000
-32.000000 972.000000 -133.000000
-32.000000 970.000000 -133.000000
-32.000000 968.000000 -133.000000
-32.000000 966.000000 -133.000000
-32.000000 964.000000 -133.000000
-32.000000 962.000000 -133.000000
-32.000000 960.000000 -133.000000
-32.000000 958.000000 -133.000000
-32.000000 956.000000 -133.000000
-32.000000 954.000000 -133.000000
-32.000000 952.000000 -133.000000
-32.000000 950.000000 -133.000000
-32.000000 948.000000 -133.000000
-32.000000 946.000000 -133.000000
-32.000000 944.000000 -133.000000
-32.000000 942.000000 -133.000000
-32.000000 940.000000 -133.000000
-32.000000 938.000000 -133.000000
-32.000000 936.000000 -133.000000
-32.000000 934.000000 -133.000000
-32.000000 932.000000 -133.000000
-32.000000 930.000000 -133.000000
-32.000000 928.000000 -133.000000
-32.000000 926.000000 -133.000000
-32.000000 924.000000 -133.000000
-32.000000 922.000000 -133.000000
-32.000000 920.000000 -133.000000
-32.000000 918.000000 -133.000000
-32.000000 916.000000 -133.000000
-32.000000 914.000000 -133.000000
-32.000000 912.000000 -133.000000
-32.000000 910.000000 -133.000000
-32.000000 908.000000 -133.000000
-32.000000 906.000000 -133.000000
-32.000000 904.000000 -133.000000
-32.000000 902.000000 -133.000000
-32.000000 900.000000 -133.000000
-32.000000 898.000000 -133.000000
-32.000000 896.000000 -133.000000
-32.000000 894.000000 -133.000000
-32.000000 892.000000 -133.000000
-32.000000 890.000000 -133.000000
-32.000000 888.000000 -133.000000
-32.000000 886.000000 -133.000000
-32.000000 884.000000 -133.000000
-32.000000 882.000000 -133.000000
-32.000000 880.000000 -133.000000
-32.000000 878.000000 -133.000000
-32.000000 876.000000 -133.000000
-32.000000 874.000000 -133.000000
-32.000000 872.000000 -133.000000
-32.000000 870.000000 -133.000000
-32.000000 868.000000 -133.000000
-32.000000 866.000000 -133.000000
-32.000000 864.000000 -133.000000
-32.000000 862.000000 -133.000000
-32.000000 860.000000 -133.000000
-32.000000 858.000000 -133.000000
-32.000000 856.000000 -133.000000
-32.000000 854.000000 -133.000000
-32.000000 852.000000 -133.000000
-32.000000 850.000000 -133.000000
-32.000000 848.000000 -133.000000
-32.000000 846.000000 -133.000000
-32.000000 844.000000 -133.000000
-32.000000 842.000000 -133.000000
-32.000000 840.000000 -133.000000
-32.000000 838.000000 -133.000000
-32.000000 836.000000 -133.000000
-32.000000 834.000000 -133.000000
-32.000000 832.000000 -133.000000
-32.000000 830.000000 -133.000000
-32.000000 828.000000 -133.000000
-32.000000 826.000000 -133.000000
-32.000000 824.000000 -133.000000
-32.000000 822.000000 -133.000000
-32.000000 820.000000 -133.000000
-32.000000 818.000000 -133.000000
-32.000000 816.000000 -133.000000
-32.000000 814.000000 -133.000000
-32.000000 812.000000 -133.000000
-32.000000 810.000000 -133.000000
-32.000000 808.000000 -133.000000
-32.000000 806.000000 -133.000000
-32.000000 804.000000 -133.000000
-32.000000 802.000000 -133.000000
-32.000000 800.000000 -133.000000
-32.000000 798.000000 -133.000000
-32.000000 796.000000 -133.000000
-32.000000 794.000000 -133.000000
-32.000000 792.000000 -133.000000
-32.000000 790.000000 -133.000000
-32.000000 788.000000 -133.000000
-32.000000 786.000000 -133.000000
-32.000000 784.000000 -133.000000
-32.000000 782.000000 -133.000000
-32.000000 780.000000 -133.000000
-32.000000 778.000000 -133.000000
-32.000000 776.000000 -133.000000
-32.000000 774.000000 -133.000000
-32.000000 772.000000 -133.000000
-32.000000 770.000000 -133.000000
-32.000000 768.000000 -133.000000
-32.000000 766.000000 -133.000000
-32.000000 764.000000 -133.000000
-32.000000 762.000000 -133.000000
-32.000000 760.000000 -133.000000
-32.000000 758.000000 -133.000000
-32.000000 756.000000 -133.000000
-32.000000 754.000000 -133.000000
-32.000000 752.000000 -133.000000
-32.000000 750.000000 -133.000000
-32.000000 748.000000 -133.000000
-32.000000 746.000000 -133.000000
-32.000000 744.000000 -133.000000
-32.000000 742.000000 -133.000000
-32.000000 740.000000 -133.000000
-32.000000 738.000000 -133.000000
-32.000000 736.000000 -133.000000
-32.000000 734.000000 -133.000000
-32.000000 732.000000 -133.000000
-32.000000 730.000000 -133.000000
-32.000000 728.000000 -133.000000
-32.000000 726.000000 -133.000000
-32.000000 724.000000 -133.000000
-32.000000 722.000000 -133.000000
-32.000000 720.000000 -133.000000
-32.000000 718.000000 -133.000000
-32.000000 716.000000 -133.000000
-32.000000 714.000000 -133.000000
-32.000000 712.000000 -133.000000
-32.000000 710.000000 -133.000000
-32.000000 708.000000 -133.000000
-32.000000 706.000000 -133.000000
-32.000000 704.000000 -133.000000
-32.000000 702.000000 -133.000000
-32.000000 700.000000 -133.000000
-32.000000 698.000000 -133.000000
-32.000000 696.000000 -133.000000
-32.000000 694.000000 -133.000000
-32.000000 692.000000 -133.000000
-32.000000 690.000000 -133.000000
-32.000000 688.000000 -133.000000
-32.000000 686.000000 -133.000000
-32.000000 684.000000 -133.000000
-32.000000 682.000000 -133.000000
-32.000000 680.000000 -133.000000
-32.000000 678.000000 -133.000000
-32.000000 676.000000 -133.000000
-32.000000 674.000000 -133.000000
-32.000000 672.000000 -133.000000
-32.000000 670.000000 -133.000000
-32.000000 668.000000 -133.000000
-32.000000 666.000000 -133.000000
-32.000000 664.000000 -133.000000
-32.000000 662.000000 -133.000000
-32.000000 660.000000 -133.000000
-32.000000 658.000000 -133.000000
-32.000000 656.000000 -133.000000
-32.000000 654.000000 -133.000000
-32.000000 652.000000 -133.000000
-32.000000 650.000000 -133.000000
-32.000000 648.000000 -133.000000
-32.000000 646.000000 -133.000000
-32.000000 644.000000 -133.000000
-32.000000 642.000000 -133.000000
-32.000000 640.000000 -133.000000
-32.000000 638.000000 -133.000000
-32.000000 636.000000 -133.000000
-32.000000 634.000000 -133.000000
-32.000000 632.000000 -133.000000
-32.000000 630.000000 -133.000000
-32.000000 628.000000 -133.000000
-32.000000 626.000000 -133.000000
-32.000000 624.000000 -133.000000
-32.000000 622.000000 -133.000000
-32.000000 620.000000 -133.000000
-32.000000 618.000000 -133.000000
-32.000000 616.000000 -133.000000
-32.000000 614.000000 -133.000000
-32.000000 612.000000 -133.000000
-32.000000 608.000000 -133.000000
-32.000000 606.132025 -133.714612
-32.000000 604.264050 -134.429224
-32.000000 602.396076 -135.143836
-32.000000 600.528101 -135.858448
-32.000000 598.660126 -136.573060
-32.000000 596.792151 -137.287672
-32.000000 594.924177 -138.002284
-32.000000 593.056202 -138.716896
-32.000000 591.188227 -139.431508
-32.000000 589.320252 -140.146120
-32.000000 587.452278 -140.860732
-32.000000 585.584303 -141.575344
-32.000000 583.716328 -142.289956
-32.000000 581.848353 -143.004568
-32.000000 579.980379 -143.719180
-32.000000 578.112404 -144.433792
-32.000000 576.244429 -145.148404
-32.000000 574.376454 -145.863016
-32.000000 572.508480 -146.577628
-32.000000 570.640505 -147.292240
-32.000000 568.772530 -148.006852
-32.000000 566.904555 -148.721464
-32.000000 565.036581 -149.436076
-32.000000 563.168606 -150.150688
-32.000000 561.300631 -150.865300
-32.000000 559.432656 -151.579912
-32.000000 557.564682 -152.294524
-32.000000 555.696707 -153.009136
-32.000000 553.828732 -153.723748
-32.000000 551.960757 -154.438360
-32.000000 550.092783 -155.152972
-32.000000 548.224808 -155.867584
-32.000000 546.356833 -156.582196
-32.000000 544.488858 -157.296808
-32.000000 542.620884 -158.011420
-32.000000 540.752909 -158.726032
-32.000000 538.884934 -159.440644
-32.000000 537.016959 -160.155256
-32.000000 535.148985 -160.869868
-32.000000 533.281010 -161.584480
-32.000000 531.413035 -162.299092
-32.000000 529.545060 -163.013704
-32.000000 527.677086 -163.728316
-32.000000 525.809111 -164.442928
-32.000000 523.941136 -165.157540
-32.000000 522.073161 -165.872152
-32.000000 520.205186 -166.586764
-32.000000 518.337212 -167.301376
-32.000000 516.469237 -168.015988
-32.000000 514.601262 -168.730600
-32.000000 512.733287 -169.445212
-32.000000 510.865313 -170.159824
-32.000000 508.997338 -170.874436
-32.000000 507.129363 -171.589048
-32.000000 505.261388 -172.303660
-32.000000 503.393414 -173.018272
-32.000000 501.525439 -173.732884
-32.000000 499.657464 -174.447496
-32.000000 497.789489 -175.162108
-32.000000 495.921515 -175.876720
-32.000000 494.053540 -176.591332
-32.000000 492.185565 -177.305944
-32.000000 490.317590 -178.020556
-32.000000 488.449616 -178.735168
-32.000000 486.581641 -179.449780
-32.000000 484.713666 -180.164392
-32.000000 482.845691 -180.879004
-32.000000 480.977717 -181.593616
-32.000000 479.109742 -182.308228
-32.000000 477.241767 -183.022840
-32.000000 475.373792 -183.737452
-32.000000 473.505818 -184.452064
-32.000000 471.637843 -185.166676
-32.000000 469.769868 -185.881288
-32.000000 467.901893 -186.595900
-32.000000 466.033919 -187.310512
-32.000000 464.165944 -188.025124
-32.000000 462.297969 -188.739736
-32.000000 460.429994 -189.454348
-32.000000 458.562020 -190.168960
-32.000000 456.694045 -190.883572
-32.000000 454.826070 -191.598184
-32.000000 452.958095 -192.312796
-32.000000 451.090121 -193.027408
-32.000000 449.222146 -193.742020
-32.000000 447.354171 -194.456632
-32.000000 445.486196 -195.171244
-32.000000 443.618222 -195.885856
-32.000000 441.750247 -196.600468
-32.000000 439.882272 -197.315080
-32.000000 438.014297 -198.029692
-32.000000 436.146323 -198.744304
-32.000000 434.278348 -199.458916
-32.000000 432.410373 -200.173528
-32.000000 430.542398 -200.888140
-32.000000 428.674423 -201.602752
-32.000000 426.806449 -202.317364
-32.000000 424.938474 -203.031976
-32.000000 423.070499 -203.746588
-32.000000 421.202524 -204.461200
-32.000000 419.334550 -205.175812
-32.000000 417.466575 -205.890424
-32.000000 415.598600 -206.605036
-32.000000 413.730625 -207.319648
-32.000000 411.862651 -208.034260
-32.000000 409.994676 -208.748872
-32.000000 408.126701 -209.463484
-32.000000 406.258726 -210.178096
-32.000000 404.390752 -210.892708
-32.000000 402.522777 -211.607320
-32.000000 400.654802 -212.321932
-32.000000 398.786827 -213.036544
-32.000000 396.918853 -213.751156
-32.000000 395.050878 -214.465768
-32.000000 393.182903 -215.180380
-32.000000 391.314928 -215.894992
-32.000000 389.446954 -216.609604
-32.000000 387.578979 -217.324216
-32.000000 385.711004 -218.038828
-32.000000 383.843029 -218.753440
-32.000000 381.975055 -219.468052
-32.000000 380.107080 -220.182664
-32.000000 378.239105 -220.897276
-32.000000 376.371130 -221.611888
-32.000000 374.503156 -222.326500
-32.000000 372.635181 -223.041112
-32.000000 370.767206 -223.755724
-32.000000 368.899231 -224.470336
-32.000000 367.031257 -225.184948
-32.000000 365.163282 -225.899560
-32.000000 363.295307 -226.614172
-32.000000 361.427332 -227.328784
-32.000000 359.559358 -228.043396
-32.000000 357.691383 -228.758008
-32.000000 355.823408 -229.472620
-32.000000 353.955433 -230.187232
-32.000000 352.087459 -230.901844
-32.000000 350.219484 -231.616456
-32.000000 348.351509 -232.331068
-32.000000 346.483534 -233.045680
-32.000000 344.615559 -233.760292
-32.000000 342.747585 -234.474904
-32.000000 340.879610 -235.189516
-32.000000 339.011635 -235.904128
-32.000000 337.143660 -236.618740
-32.000000 335.275686 -237.333352
-32.000000 333.407711 -238.047964
-32.000000 331.539736 -238.762576
-32.000000 329.671761 -239.477188
-32.000000 327.803787 -240.191800
-32.000000 325.935812 -240.906412
-32.000000 324.067837 -241.621024
-32.000000 322.199862 -242.335636
-32.000000 320.331888 -243.050248
-32.000000 318.463913 -243.764860
-32.000000 316.595938 -244.479472
-32.000000 314.727963 -245.194084
-32.000000 312.859989 -245.908696
-32.000000 310.992014 -246.623308
-32.000000 309.124039 -247.337920
-32.000000 307.256064 -248.052532
-32.000000 305.388090 -248.767144
-32.000000 303.520115 -249.481756
