1269.711601 2517.057348 6.846404
1269.275638 2517.934228 5.102553
1268.839675 2518.811108 3.358701
1268.000000 2520.500000 0.000000
1268.000000 2520.500000 -2.000000
1268.000000 2520.500000 -4.000000
1268.000000 2520.500000 -6.000000
1268.000000 2520.500000 -8.000000
1268.000000 2520.500000 -10.000000
1268.000000 2520.500000 -12.000000
1268.000000 2520.500000 -16.000000
1268.000000 2518.953015 -17.267611
1268.000000 2517.406029 -18.535221
1268.000000 2515.859044 -19.802832
1268.000000 2514.312059 -21.070442
1268.000000 2512.765074 -22.338053
1268.000000 2511.218088 -23.605663
1268.000000 2509.671103 -24.873274
1268.000000 2508.124118 -26.140885
1268.000000 2506.577133 -27.408495
1268.000000 2505.030147 -28.676106
1268.000000 2503.483162 -29.943716
1268.000000 2501.936177 -31.211327
1268.000000 2500.389191 -32.478937
1268.000000 2498.842206 -33.746548
1268.000000 2497.295221 -35.014159
1268.000000 2495.748236 -36.281769
1268.000000 2494.201250 -37.549380
1268.000000 2492.654265 -38.816990
1268.000000 2491.107280 -40.084601
1268.000000 2489.560295 -41.352211
1268.000000 2488.013309 -42.619822
1268.000000 2486.466324 -43.887433
1268.000000 2484.919339 -45.155043
1268.000000 2483.372353 -46.422654
1268.000000 2481.825368 -47.690264
1268.000000 2480.278383 -48.957875
1268.000000 2478.731398 -50.225485
1268.000000 2477.184412 -51.493096
1268.000000 2475.637427 -52.760707
1268.000000 2474.090442 -54.028317
1268.000000 2472.543457 -55.295928
1268.000000 2470.996471 -56.563538
1268.000000 2469.449486 -57.831149
1268.000000 2467.902501 -59.098760
1268.000000 2466.355515 -60.366370
1268.000000 2464.808530 -61.633981
1268.000000 2463.261545 -62.901591
1268.000000 2461.714560 -64.169202
1268.000000 2460.167574 -65.436812
1268.000000 2458.620589 -66.704423
1268.000000 2457.073604 -67.972034
1268.000000 2455.526619 -69.239644
1268.000000 2453.979633 -70.507255
1268.000000 2452.432648 -71.774865
1268.000000 2450.885663 -73.042476
1268.000000 2449.338677 -74.310086
1268.000000 2447.791692 -75.577697
1268.000000 2446.244707 -76.845308
1268.000000 2444.697722 -78.112918
1268.000000 2443.150736 -79.380529
1268.000000 2441.603751 -80.648139
1268.000000 2440.056766 -81.915750
1268.000000 2438.509781 -83.183360
1268.000000 2436.962795 -84.450971
1268.000000 2435.415810 -85.718582
1268.000000 2433.868825 -86.986192
1268.000000 2432.321839 -88.253803
1268.000000 2430.774854 -89.521413
1268.000000 2429.227869 -90.789024
1268.000000 2427.680884 -92.056634
1268.000000 2426.133898 -93.324245
1268.000000 2424.586913 -94.591856
1268.000000 2423.039928 -95.859466
1268.000000 2421.492943 -97.127077
1268.000000 2419.945957 -98.394687
1268.000000 2418.398972 -99.662298
1268.000000 2416.851987 -100.929908
1268.000000 2415.305001 -102.197519
1268.000000 2413.758016 -103.465130
1268.000000 2412.211031 -104.732740
1268.000000 2410.664046 -106.000351
1268.000000 2409.117060 -107.267961
1268.000000 2407.570075 -108.535572
1268.000000 2406.023090 -109.803182
1268.000000 2404.476105 -111.070793
1268.000000 2402.929119 -112.338404
1268.000000 2401.382134 -113.606014
1268.000000 2399.835149 -114.873625
1268.000000 2398.288163 -116.141235
1268.000000 2396.741178 -117.408846
1268.000000 2395.194193 -118.676456
1268.000000 2393.647208 -119.944067
1268.000000 2392.100222 -121.211678
1268.000000 2390.553237 -122.479288
1268.000000 2389.006252 -123.746899
1268.000000 2387.459267 -125.014509
1268.000000 2385.912281 -126.282120
1268.000000 2384.365296 -127.549730
1268.000000 2382.818311 -128.817341
1268.000000 2381.271325 -130.084952
1268.000000 2379.724340 -131.352562
1268.000000 2378.177355 -132.620173
1268.000000 2376.630370 -133.887783
1268.000000 2375.083384 -135.155394
1268.000000 2373.536399 -136.423005
1268.000000 2371.989414 -137.690615
1268.000000 2370.442429 -138.958226
1268.000000 2368.895443 -140.225836
1268.000000 2367.348458 -141.493447
1268.000000 2365.801473 -142.761057
1268.000000 2364.254487 -144.028668
1268.000000 2362.707502 -145.296279
1268.000000 2361.160517 -146.563889
1268.000000 2359.613532 -147.831500
1268.000000 2358.066546 -149.099110
1268.000000 2356.519561 -150.366721
1268.000000 2354.972576 -151.634331
1268.000000 2353.425591 -152.901942
1268.000000 2351.878605 -154.169553
1268.000000 2350.331620 -155.437163
1268.000000 2348.784635 -156.704774
1268.000000 2347.237649 -157.972384
1268.000000 2345.690664 -159.239995
1268.000000 2344.143679 -160.507605
1268.000000 2342.596694 -161.775216
1268.000000 2341.049708 -163.042827
1268.000000 2339.502723 -164.310437
1268.000000 2337.955738 -165.578048
1268.000000 2335.000000 -168.000000
1268.000000 2334.289879 -169.869687
1268.000000 2333.579757 -171.739373
1268.000000 2332.869636 -173.609060
1268.000000 2332.159515 -175.478746
1268.000000 2331.449393 -177.348433
1268.000000 2330.739272 -179.218119
1268.000000 2330.029151 -181.087806
1268.000000 2329.319029 -182.957492
1268.000000 2328.608908 -184.827179
1268.000000 2327.898787 -186.696865
1268.000000 2327.188665 -188.566552
1268.000000 2326.478544 -190.436238
1268.000000 2325.768423 -192.305925
1268.000000 2325.058301 -194.175611
1268.000000 2324.348180 -196.045298
1268.000000 2323.638059 -197.914984
1268.000000 2322.927937 -199.784671
1268.000000 2322.217816 -201.654357
1268.000000 2321.507695 -203.524044
1268.000000 2320.797574 -205.393731
1268.000000 2320.087452 -207.263417
1268.000000 2319.377331 -209.133104
1268.000000 2318.667210 -211.002790
1268.000000 2317.957088 -212.872477
1268.000000 2317.246967 -214.742163
1268.000000 2316.536846 -216.611850
1268.000000 2315.826724 -218.481536
1268.000000 2315.116603 -220.351223
1268.000000 2314.406482 -222.220909
1268.000000 2313.696360 -224.090596
1268.000000 2312.986239 -225.960282
1268.000000 2312.276118 -227.829969
1268.000000 2311.565996 -229.699655
1268.000000 2310.855875 -231.569342
1268.000000 2310.145754 -233.439028
1268.000000 2309.435632 -235.308715
1268.000000 2308.725511 -237.178401
1268.000000 2308.015390 -239.048088
1268.000000 2307.305268 -240.917775
1268.000000 2306.595147 -242.787461
1268.000000 2305.885026 -244.657148
1268.000000 2305.174904 -246.526834
1268.000000 2304.464783 -248.396521
1268.000000 2303.754662 -250.266207
1268.000000 2303.044540 -252.135894
1268.000000 2302.334419 -254.005580
1268.000000 2301.624298 -255.875267
1268.000000 2300.914176 -257.744953
1268.000000 2300.204055 -259.614640
1268.000000 2299.493934 -261.484326
1268.000000 2298.783812 -263.354013
1268.000000 2298.073691 -265.223699
1268.000000 2297.363570 -267.093386
1268.000000 2296.653448 -268.963072
1268.000000 2295.943327 -270.832759
1268.000000 2295.233206 -272.702445
1268.000000 2294.523084 -274.572132
1268.000000 2293.812963 -276.441818
1268.000000 2293.102842 -278.311505
1268.000000 2292.392721 -280.181192
1268.000000 2291.682599 -282.050878
1268.000000 2290.972478 -283.920565
1268.000000 2290.262357 -285.790251
1268.000000 2289.552235 -287.659938
1268.000000 2288.842114 -289.529624
1268.000000 2288.131993 -291.399311
1268.000000 2287.421871 -293.268997
1268.000000 2286.711750 -295.138684
1268.000000 2286.001629 -297.008370
1268.000000 2285.291507 -298.878057
1268.000000 2284.581386 -300.747743
1268.000000 2283.871265 -302.617430
1268.000000 2283.161143 -304.487116
1268.000000 2282.451022 -306.356803
1268.000000 2281.740901 -308.226489
1268.000000 2281.030779 -310.096176
1268.000000 2280.320658 -311.965862
1268.000000 2279.610537 -313.835549
1268.000000 2278.900415 -315.705236
1268.000000 2278.190294 -317.574922
1268.000000 2277.480173 -319.444609
1268.000000 2276.770051 -321.314295
1268.000000 2276.059930 -323.183982
1268.000000 2275.349809 -325.053668
1268.000000 2274.639687 -326.923355
1268.000000 2273.929566 -328.793041
1268.000000 2273.219445 -330.662728
1268.000000 2272.509323 -332.532414
1268.000000 2271.799202 -334.402101
1268.000000 2271.089081 -336.271787
1268.000000 2270.378959 -338.141474
1268.000000 2269.668838 -340.011160
1268.000000 2268.958717 -341.880847
1268.000000 2268.248595 -343.750533
1268.000000 2267.538474 -345.620220
1268.000000 2266.828353 -347.489906
1268.000000 2266.118232 -349.359593
1268.000000 2265.408110 -351.229280
1268.000000 2264.697989 -353.098966
1268.000000 2263.987868 -354.968653
1268.000000 2263.277746 -356.838339
1268.000000 2262.567625 -358.708026
1268.000000 2261.857504 -360.577712
1268.000000 2261.147382 -362.447399
1268.000000 2260.437261 -364.317085
1268.000000 2259.727140 -366.186772
1268.000000 2259.017018 -368.056458
1268.000000 2258.306897 -369.926145
1268.000000 2257.596776 -371.795831
1268.000000 2256.886654 -373.665518
1268.000000 2256.176533 -375.535204
1268.000000 2255.466412 -377.404891
1268.000000 2254.756290 -379.274577
1268.000000 2254.046169 -381.144264
1268.000000 2253.336048 -383.013950
1268.000000 2252.625926 -384.883637
1268.000000 2251.915805 -386.753324
1268.000000 2251.205684 -388.623010
1268.000000 2250.495562 -390.492697
1268.000000 2249.785441 -392.362383
1268.000000 2249.075320 -394.232070
1268.000000 2248.365198 -396.101756
1268.000000 2247.655077 -397.971443
1268.000000 2246.944956 -399.841129
1268.000000 2246.234834 -401.710816
1268.000000 2245.524713 -403.580502
1268.000000 2244.814592 -405.450189
1268.000000 2244.104470 -407.319875
1268.000000 2243.394349 -409.189562
1268.000000 2242.684228 -411.059248
1268.000000 2241.974106 -412.928935
1268.000000 2241.263985 -414.798621
1268.000000 2240.553864 -416.668308
1268.000000 2239.843742 -418.537994
1268.000000 2239.133621 -420.407681
1268.000000 2238.423500 -422.277367
1268.000000 2237.713379 -424.147054
1268.000000 2237.003257 -426.016741
1268.000000 2236.293136 -427.886427
1268.000000 2235.583015 -429.756114
1268.000000 2234.872893 -431.625800
1268.000000 2234.162772 -433.495487
1268.000000 2233.452651 -435.365173
1268.000000 2232.742529 -437.234860
1268.000000 2232.032408 -439.104546
1268.000000 2231.322287 -440.974233
1268.000000 2230.612165 -442.843919
1268.000000 2229.902044 -444.713606
1268.000000 2229.191923 -446.583292
1268.000000 2228.481801 -448.452979
1268.000000 2227.771680 -450.322665
1268.000000 2227.061559 -452.192352
1268.000000 2226.351437 -454.062038
1268.000000 2225.641316 -455.931725
1268.000000 2224.931195 -457.801411
1268.000000 2224.221073 -459.671098
1268.000000 2223.510952 -461.540785
1268.000000 2222.800831 -463.410471
1268.000000 2222.090709 -465.280158
1268.000000 2221.380588 -467.149844
1268.000000 2220.670467 -469.019531
1268.000000 2219.960345 -470.889217
1268.000000 2219.250224 -472.758904
1268.000000 2218.540103 -474.628590
1268.000000 2217.829981 -476.498277
1268.000000 2217.119860 -478.367963
1268.000000 2216.409739 -480.237650
1268.000000 2215.699617 -482.107336
1268.000000 2214.989496 -483.977023
1268.000000 2214.279375 -485.846709
1268.000000 2213.569253 -487.716396
1268.000000 2212.859132 -489.586082
1268.000000 2212.149011 -491.455769
1268.000000 2211.438890 -493.325455
1268.000000 2210.728768 -495.195142
1268.000000 2210.018647 -497.064829
1268.000000 2209.308526 -498.934515
1268.000000 2208.598404 -500.804202
1268.000000 2207.888283 -502.673888
1268.000000 2207.178162 -504.543575
1268.000000 2206.468040 -506.413261
1268.000000 2205.757919 -508.282948
1268.000000 2205.047798 -510.152634
1268.000000 2204.337676 -512.022321
1268.000000 2203.627555 -513.892007
1268.000000 2202.917434 -515.761694
1268.000000 2202.207312 -517.631380
1268.000000 2201.497191 -519.501067
1268.000000 2200.787070 -521.370753
1268.000000 2200.076948 -523.240440
1268.000000 2199.366827 -525.110126
1268.000000 2198.656706 -526.979813
1268.000000 2197.946584 -528.849499
1268.000000 2197.236463 -530.719186
1268.000000 2196.526342 -532.588873
1268.000000 2195.816220 -534.458559
1268.000000 2195.106099 -536.328246
1268.000000 2194.395978 -538.197932
1268.000000 2193.685856 -540.067619
1268.000000 2192.975735 -541.937305
1268.000000 2192.265614 -543.806992
1268.000000 2191.555492 -545.676678
1268.000000 2190.845371 -547.546365
1268.000000 2190.135250 -549.416051
1268.000000 2189.425128 -551.285738
1268.000000 2188.715007 -553.155424
1268.000000 2188.004886 -555.025111
1268.000000 2187.294764 -556.894797
1268.000000 2186.584643 -558.764484
1268.000000 2185.874522 -560.634170
1268.000000 2185.164400 -562.503857
1268.000000 2184.454279 -564.373543
1268.000000 2183.744158 -566.243230
1268.000000 2183.034037 -568.112916
1268.000000 2182.323915 -569.982603
1268.000000 2181.613794 -571.852290
1268.000000 2180.903673 -573.721976
1268.000000 2180.193551 -575.591663
1268.000000 2179.483430 -577.461349
1268.000000 2178.773309 -579.331036
1268.000000 2178.063187 -581.200722
1268.000000 2177.353066 -583.070409
1268.000000 2176.642945 -584.940095
1268.000000 2175.932823 -586.809782
1268.000000 2175.222702 -588.679468
1268.000000 2174.512581 -590.549155
1268.000000 2173.802459 -592.418841
1268.000000 2173.092338 -594.288528
1268.000000 2172.382217 -596.158214
1268.000000 2171.672095 -598.027901
1268.000000 2170.961974 -599.897587
1268.000000 2170.251853 -601.767274
1268.000000 2169.541731 -603.636960
1268.000000 2168.831610 -605.506647
1268.000000 2168.121489 -607.376334
1268.000000 2167.411367 -609.246020
1268.000000 2166.701246 -611.115707
1268.000000 2165.991125 -612.985393
1268.000000 2165.281003 -614.855080
1268.000000 2164.570882 -616.724766
1268.000000 2163.860761 -618.594453
1268.000000 2163.150639 -620.464139
1268.000000 2162.440518 -622.333826
1268.000000 2161.730397 -624.203512
1268.000000 2161.020275 -626.073199
1268.000000 2160.310154 -627.942885
1268.000000 2159.600033 -629.812572
1268.000000 2158.889911 -631.682258
1268.000000 2158.179790 -633.551945
1268.000000 2157.469669 -635.421631
1268.000000 2156.759548 -637.291318
1268.000000 2156.049426 -639.161004
1268.000000 2155.339305 -641.030691
1268.000000 2154.629184 -642.900378
1268.000000 2153.919062 -644.770064
1268.000000 2153.208941 -646.639751
1268.000000 2152.498820 -648.509437
1268.000000 2151.788698 -650.379124
1268.000000 2151.078577 -652.248810
1268.000000 2150.368456 -654.118497
1268.000000 2149.658334 -655.988183
1268.000000 2148.948213 -657.857870
1268.000000 2148.238092 -659.727556
1268.000000 2147.527970 -661.597243
1268.000000 2146.817849 -663.466929
1268.000000 2146.107728 -665.336616
1268.000000 2145.397606 -667.206302
1268.000000 2144.687485 -669.075989
1268.000000 2143.977364 -670.945675
1268.000000 2143.267242 -672.815362
1268.000000 2142.557121 -674.685048
1268.000000 2141.847000 -676.554735
1268.000000 2141.136878 -678.424422
1268.000000 2140.426757 -680.294108
1268.000000 2139.716636 -682.163795
1268.000000 2139.006514 -684.033481
1268.000000 2138.296393 -685.903168
1268.000000 2137.500000 -688.000000
1268.000000 2135.510177 -688.201501
1268.000000 2133.520353 -688.403002
1268.000000 2131.530530 -688.604503
1268.000000 2129.540706 -688.806004
1268.000000 2127.550883 -689.007506
1268.000000 2125.561059 -689.209007
1268.000000 2123.571236 -689.410508
1268.000000 2121.581413 -689.612009
1268.000000 2119.591589 -689.813510
1268.000000 2117.601766 -690.015011
1268.000000 2115.611942 -690.216512
1268.000000 2113.622119 -690.418013
1268.000000 2111.632295 -690.619514
1268.000000 2109.642472 -690.821016
1268.000000 2107.652648 -691.022517
1268.000000 2105.662825 -691.224018
1268.000000 2103.673002 -691.425519
1268.000000 2101.683178 -691.627020
1268.000000 2099.693355 -691.828521
1268.000000 2097.703531 -692.030022
1268.000000 2095.713708 -692.231523
1268.000000 2093.723884 -692.433024
1268.000000 2091.734061 -692.634525
1268.000000 2089.744238 -692.836027
1268.000000 2087.754414 -693.037528
1268.000000 2085.764591 -693.239029
1268.000000 2083.774767 -693.440530
1268.000000 2081.784944 -693.642031
1268.000000 2079.795120 -693.843532
1268.000000 2077.805297 -694.045033
1268.000000 2075.815474 -694.246534
1268.000000 2073.825650 -694.448035
1268.000000 2071.835827 -694.649537
1268.000000 2069.846003 -694.851038
1268.000000 2067.856180 -695.052539
1268.000000 2065.866356 -695.254040
1268.000000 2063.876533 -695.455541
1268.000000 2061.886709 -695.657042
1268.000000 2059.896886 -695.858543
1268.000000 2057.907063 -696.060044
1268.000000 2055.917239 -696.261545
1268.000000 2053.927416 -696.463047
1268.000000 2051.937592 -696.664548
1268.000000 2049.947769 -696.866049
1268.000000 2047.957945 -697.067550
1268.000000 2045.968122 -697.269051
1268.000000 2043.978299 -697.470552
1268.000000 2041.988475 -697.672053
1268.000000 2039.998652 -697.873554
1268.000000 2038.008828 -698.075055
1268.000000 2036.019005 -698.276556
1268.000000 2034.029181 -698.478058
1268.000000 2032.039358 -698.679559
1268.000000 2030.049534 -698.881060
1268.000000 2028.059711 -699.082561
1268.000000 2026.069888 -699.284062
1268.000000 2024.080064 -699.485563
1268.000000 2022.090241 -699.687064
1268.000000 2020.100417 -699.888565
1268.000000 2018.110594 -700.090066
1268.000000 2016.120770 -700.291568
1268.000000 2014.130947 -700.493069
1268.000000 2012.141124 -700.694570
1268.000000 2010.151300 -700.896071
1268.000000 2008.161477 -701.097572
1268.000000 2006.171653 -701.299073
1268.000000 2004.181830 -701.500574
1268.000000 2002.192006 -701.702075
1268.000000 2000.202183 -701.903576
1268.000000 1998.212360 -702.105078
1268.000000 1996.222536 -702.306579
1268.000000 1994.232713 -702.508080
1268.000000 1992.242889 -702.709581
1268.000000 1990.253066 -702.911082
1268.000000 1988.263242 -703.112583
1268.000000 1986.273419 -703.314084
1268.000000 1984.283595 -703.515585
1268.000000 1982.293772 -703.717086
1268.000000 1980.303949 -703.918587
1268.000000 1978.314125 -704.120089
1268.000000 1976.324302 -704.321590
1268.000000 1974.334478 -704.523091
1268.000000 1972.344655 -704.724592
1268.000000 1970.354831 -704.926093
1268.000000 1968.365008 -705.127594
1268.000000 1966.375185 -705.329095
1268.000000 1964.385361 -705.530596
1268.000000 1962.395538 -705.732097
1268.000000 1960.405714 -705.933599
1268.000000 1958.415891 -706.135100
1268.000000 1956.426067 -706.336601
1268.000000 1954.436244 -706.538102
1268.000000 1952.446421 -706.739603
1268.000000 1950.456597 -706.941104
1268.000000 1948.466774 -707.142605
1268.000000 1946.476950 -707.344106
1268.000000 1944.487127 -707.545607
1268.000000 1942.497303 -707.747109
1268.000000 1940.000000 -708.000000
1268.000000 1938.000000 -708.000000
1268.000000 1936.000000 -708.000000
1268.000000 1934.000000 -708.000000
1268.000000 1932.000000 -708.000000
1268.000000 1930.000000 -708.000000
1268.000000 1928.000000 -708.000000
1268.000000 1926.000000 -708.000000
1268.000000 1924.000000 -708.000000
1268.000000 1922.000000 -708.000000
1268.000000 1920.000000 -708.000000
1268.000000 1918.000000 -708.000000
1268.000000 1916.000000 -708.000000
1268.000000 1914.000000 -708.000000
1268.000000 1912.000000 -708.000000
1268.000000 1910.000000 -708.000000
1268.000000 1908.000000 -708.000000
1268.000000 1906.000000 -708.000000
1268.000000 1904.000000 -708.000000
1268.000000 1902.000000 -708.000000
1268.000000 1900.000000 -708.000000
1268.000000 1898.000000 -708.000000
1268.000000 1896.000000 -708.000000
1268.000000 1894.000000 -708.000000
1268.000000 1892.000000 -708.000000
1268.000000 1890.000000 -708.000000
1268.000000 1888.000000 -708.000000
1268.000000 1886.000000 -708.000000
1268.000000 1884.000000 -708.000000
1268.000000 1882.000000 -708.000000
1268.000000 1880.000000 -708.000000
1268.000000 1878.000000 -708.000000
1268.000000 1876.000000 -708.000000
1268.000000 1874.000000 -708.000000
1268.000000 1872.000000 -708.000000
1268.000000 1870.000000 -708.000000
1268.000000 1868.000000 -708.000000
1268.000000 1866.000000 -708.000000
1268.000000 1864.000000 -708.000000
1268.000000 1862.000000 -708.000000
1268.000000 1860.000000 -708.000000
1268.000000 1858.000000 -708.000000
1268.000000 1856.000000 -708.000000
1268.000000 1854.000000 -708.000000
1268.000000 1852.000000 -708.000000
1268.000000 1850.000000 -708.000000
1268.000000 1848.000000 -708.000000
1268.000000 1846.000000 -708.000000
1268.000000 1844.000000 -708.000000
1268.000000 1842.000000 -708.000000
1268.000000 1840.000000 -708.000000
1268.000000 1838.000000 -708.000000
1268.000000 1836.000000 -708.000000
1268.000000 1834.000000 -708.000000
1268.000000 1832.000000 -708.000000
1268.000000 1830.000000 -708.000000
1268.000000 1828.000000 -708.000000
1268.000000 1826.000000 -708.000000
1268.000000 1824.000000 -708.000000
1268.000000 1822.000000 -708.000000
1268.000000 1820.000000 -708.000000
1268.000000 1818.000000 -708.000000
1268.000000 1816.000000 -708.000000
1268.000000 1814.000000 -708.000000
1268.000000 1812.000000 -708.000000
1268.000000 1810.000000 -708.000000
1268.000000 1808.000000 -708.000000
1268.000000 1806.000000 -708.000000
1268.000000 1804.000000 -708.000000
1268.000000 1802.000000 -708.000000
1268.000000 1800.000000 -708.000000
1268.000000 1798.000000 -708.000000
1268.000000 1796.000000 -708.000000
1268.000000 1794.000000 -708.000000
1268.000000 1792.000000 -708.000000
1268.000000 1790.000000 -708.000000
1268.000000 1788.000000 -708.000000
1268.000000 1786.000000 -708.000000
1268.000000 1784.000000 -708.000000
1268.000000 1782.000000 -708.000000
1268.000000 1780.000000 -708.000000
1268.000000 1778.000000 -708.000000
1268.000000 1776.000000 -708.000000
1268.000000 1774.000000 -708.000000
1268.000000 1772.000000 -708.000000
1268.000000 1770.000000 -708.000000
1268.000000 1768.000000 -708.000000
1268.000000 1766.000000 -708.000000
1268.000000 1764.000000 -708.000000
1268.000000 1762.000000 -708.000000
1268.000000 1760.000000 -708.000000
1268.000000 1758.000000 -708.000000
1268.000000 1756.000000 -708.000000
1268.000000 1754.000000 -708.000000
1268.000000 1752.000000 -708.000000
1268.000000 1750.000000 -708.000000
1268.000000 1748.000000 -708.000000
1268.000000 1746.000000 -708.000000
1268.000000 1744.000000 -708.000000
1268.000000 1742.000000 -708.000000
1268.000000 1740.000000 -708.000000
1268.000000 1738.000000 -708.000000
1268.000000 1736.000000 -708.000000
1268.000000 1734.000000 -708.000000
1268.000000 1732.000000 -708.000000
1268.000000 1730.000000 -708.000000
1268.000000 1728.000000 -708.000000
1268.000000 1726.000000 -708.000000
1268.000000 1724.000000 -708.000000
1268.000000 1722.000000 -708.000000
1268.000000 1720.000000 -708.000000
1268.000000 1718.000000 -708.000000
1268.000000 1716.000000 -708.000000
1268.000000 1714.000000 -708.000000
1268.000000 1712.000000 -708.000000
1268.000000 1710.000000 -708.000000
1268.000000 1708.000000 -708.000000
1268.000000 1706.000000 -708.000000
1268.000000 1704.000000 -708.000000
1268.000000 1702.000000 -708.000000
1268.000000 1700.000000 -708.000000
1268.000000 1698.000000 -708.000000
1268.000000 1696.000000 -708.000000
1268.000000 1694.000000 -708.000000
1268.000000 1692.000000 -708.000000
1268.000000 1690.000000 -708.000000
1268.000000 1688.000000 -708.000000
1268.000000 1686.000000 -708.000000
1268.000000 1684.000000 -708.000000
1268.000000 1682.000000 -708.000000
1268.000000 1680.000000 -708.000000
1268.000000 1678.000000 -708.000000
1268.000000 1676.000000 -708.000000
1268.000000 1674.000000 -708.000000
1268.000000 1672.000000 -708.000000
1268.000000 1670.000000 -708.000000
1268.000000 1668.000000 -708.000000
1268.000000 1666.000000 -708.000000
1268.000000 1664.000000 -708.000000
1268.000000 1662.000000 -708.000000
1268.000000 1660.000000 -708.000000
1268.000000 1658.000000 -708.000000
1268.000000 1656.000000 -708.000000
1268.000000 1654.000000 -708.000000
1268.000000 1652.000000 -708.000000
1268.000000 1650.000000 -708.000000
1268.000000 1648.000000 -708.000000
1268.000000 1646.000000 -708.000000
1268.000000 1644.000000 -708.000000
1268.000000 1642.000000 -708.000000
1268.000000 1640.000000 -708.000000
1268.000000 1638.000000 -708.000000
1268.000000 1636.000000 -708.000000
1268.000000 1634.000000 -708.000000
1268.000000 1632.000000 -708.000000
1268.000000 1630.000000 -708.000000
1268.000000 1628.000000 -708.000000
1268.000000 1626.000000 -708.000000
1268.000000 1624.000000 -708.000000
1268.000000 1622.000000 -708.000000
1268.000000 1620.000000 -708.000000
1268.000000 1618.000000 -708.000000
1268.000000 1616.000000 -708.000000
1268.000000 1614.000000 -708.000000
1268.000000 1612.000000 -708.000000
1268.000000 1610.000000 -708.000000
1268.000000 1608.000000 -708.000000
1268.000000 1606.000000 -708.000000
1268.000000 1604.000000 -708.000000
1268.000000 1602.000000 -708.000000
1268.000000 1600.000000 -708.000000
1268.000000 1598.000000 -708.000000
1268.000000 1596.000000 -708.000000
1268.000000 1594.000000 -708.000000
1268.000000 1592.000000 -708.000000
1268.000000 1590.000000 -708.000000
1268.000000 1588.000000 -708.000000
1268.000000 1586.000000 -708.000000
1268.000000 1584.000000 -708.000000
1268.000000 1582.000000 -708.000000
1268.000000 1580.000000 -708.000000
1268.000000 1578.000000 -708.000000
1268.000000 1576.000000 -708.000000
1268.000000 1574.000000 -708.000000
1268.000000 1572.000000 -708.000000
1268.000000 1570.000000 -708.000000
1268.000000 1568.000000 -708.000000
1268.000000 1566.000000 -708.000000
1268.000000 1564.000000 -708.000000
1268.000000 1562.000000 -708.000000
1268.000000 1560.000000 -708.000000
1268.000000 1558.000000 -708.000000
1268.000000 1556.000000 -708.000000
1268.000000 1554.000000 -708.000000
1268.000000 1552.000000 -708.000000
1268.000000 1550.000000 -708.000000
1268.000000 1548.000000 -708.000000
1268.000000 1546.000000 -708.000000
1268.000000 1544.000000 -708.000000
1268.000000 1542.000000 -708.000000
1268.000000 1540.000000 -708.000000
1268.000000 1536.000000 -708.000000
1268.000000 1534.000000 -708.000000
1268.000000 1532.000000 -708.000000
1268.000000 1530.000000 -708.000000
1268.000000 1528.000000 -708.000000
1268.000000 1526.000000 -708.000000
1268.000000 1524.000000 -708.000000
1268.000000 1522.000000 -708.000000
1268.000000 1520.000000 -708.000000
1268.000000 1518.000000 -708.000000
1268.000000 1516.000000 -708.000000
1268.000000 1514.000000 -708.000000
1268.000000 1512.000000 -708.000000
1268.000000 1510.000000 -708.000000
1268.000000 1508.000000 -708.000000
1268.000000 1506.000000 -708.000000
1268.000000 1504.000000 -708.000000
1268.000000 1502.000000 -708.000000
1268.000000 1500.000000 -708.000000
1268.000000 1498.000000 -708.000000
1268.000000 1496.000000 -708.000000
1268.000000 1494.000000 -708.000000
1268.000000 1492.000000 -708.000000
1268.000000 1490.000000 -708.000000
1268.000000 1488.000000 -708.000000
1268.000000 1486.000000 -708.000000
1268.000000 1484.000000 -708.000000
1268.000000 1482.000000 -708.000000
1268.000000 1480.000000 -708.000000
1268.000000 1478.000000 -708.000000
1268.000000 1476.000000 -708.000000
1268.000000 1474.000000 -708.000000
1268.000000 1472.000000 -708.000000
1268.000000 1470.000000 -708.000000
1268.000000 1468.000000 -708.000000
1268.000000 1466.000000 -708.000000
1268.000000 1464.000000 -708.000000
1268.000000 1462.000000 -708.000000
1268.000000 1460.000000 -708.000000
1268.000000 1458.000000 -708.000000
1268.000000 1456.000000 -708.000000
1268.000000 1454.000000 -708.000000
1268.000000 1452.000000 -708.000000
1268.000000 1450.000000 -708.000000
1268.000000 1448.000000 -708.000000
1268.000000 1446.000000 -708.000000
1268.000000 1444.000000 -708.000000
1268.000000 1442.000000 -708.000000
1268.000000 1440.000000 -708.000000
1268.000000 1438.000000 -708.000000
1268.000000 1436.000000 -708.000000
1268.000000 1434.000000 -708.000000
1268.000000 1432.000000 -708.000000
1268.000000 1430.000000 -708.000000
1268.000000 1428.000000 -708.000000
1268.000000 1426.000000 -708.000000
1268.000000 1424.000000 -708.000000
1268.000000 1422.000000 -708.000000
1268.000000 1420.000000 -708.000000
1268.000000 1418.000000 -708.000000
1268.000000 1416.000000 -708.000000
1268.000000 1414.000000 -708.000000
1268.000000 1412.000000 -708.000000
1268.000000 1410.000000 -708.000000
1268.000000 1408.000000 -708.000000
1268.000000 1406.000000 -708.000000
1268.000000 1404.000000 -708.000000
1268.000000 1402.000000 -708.000000
1268.000000 1400.000000 -708.000000
1268.000000 1398.000000 -708.000000
1268.000000 1396.000000 -708.000000
1268.000000 1394.000000 -708.000000
1268.000000 1392.000000 -708.000000
1268.000000 1390.000000 -708.000000
1268.000000 1388.000000 -708.000000
1268.000000 1386.000000 -708.000000
1268.000000 1384.000000 -708.000000
1268.000000 1382.000000 -708.000000
1268.000000 1380.000000 -708.000000
1268.000000 1378.000000 -708.000000
1268.000000 1376.000000 -708.000000
1268.000000 1374.000000 -708.000000
1268.000000 1372.000000 -708.000000
1268.000000 1370.000000 -708.000000
1268.000000 1368.000000 -708.000000
1268.000000 1366.000000 -708.000000
1268.000000 1364.000000 -708.000000
1268.000000 1362.000000 -708.000000
1268.000000 1360.000000 -708.000000
1268.000000 1358.000000 -708.000000
1268.000000 1356.000000 -708.000000
1268.000000 1354.000000 -708.000000
1268.000000 1352.000000 -708.000000
1268.000000 1350.000000 -708.000000
1268.000000 1348.000000 -708.000000
1268.000000 1346.000000 -708.000000
1268.000000 1344.000000 -708.000000
1268.000000 1342.000000 -708.000000
1268.000000 1340.000000 -708.000000
1268.000000 1338.000000 -708.000000
1268.000000 1336.000000 -708.000000
1268.000000 1334.000000 -708.000000
1268.000000 1332.000000 -708.000000
1268.000000 1330.000000 -708.000000
1268.000000 1328.000000 -708.000000
1268.000000 1326.000000 -708.000000
1268.000000 1324.000000 -708.000000
1268.000000 1322.000000 -708.000000
1268.000000 1320.000000 -708.000000
1268.000000 1318.000000 -708.000000
1268.000000 1316.000000 -708.000000
1268.000000 1314.000000 -708.000000
1268.000000 1312.000000 -708.000000
1268.000000 1310.000000 -708.000000
1268.000000 1308.000000 -708.000000
1268.000000 1306.000000 -708.000000
1268.000000 1304.000000 -708.000000
1268.000000 1302.000000 -708.000000
1268.000000 1300.000000 -708.000000
1268.000000 1298.000000 -708.000000
1268.000000 1296.000000 -708.000000
1268.000000 1294.000000 -708.000000
1268.000000 1292.000000 -708.000000
1268.000000 1290.000000 -708.000000
1268.000000 1288.000000 -708.000000
1268.000000 1286.000000 -708.000000
1268.000000 1284.000000 -708.000000
1268.000000 1282.000000 -708.000000
1268.000000 1280.000000 -708.000000
1268.000000 1278.000000 -708.000000
1268.000000 1276.000000 -708.000000
1268.000000 1274.000000 -708.000000
1268.000000 1272.000000 -708.000000
1268.000000 1270.000000 -708.000000
1268.000000 1268.000000 -708.000000
1268.000000 1266.000000 -708.000000
1268.000000 1264.000000 -708.000000
1268.000000 1262.000000 -708.000000
1268.000000 1260.000000 -708.000000
1268.000000 1258.000000 -708.000000
1268.000000 1256.000000 -708.000000
1268.000000 1254.000000 -708.000000
1268.000000 1252.000000 -708.000000
1268.000000 1250.000000 -708.000000
1268.000000 1248.000000 -708.000000
1268.000000 1246.000000 -708.000000
1268.000000 1244.000000 -708.000000
1268.000000 1242.000000 -708.000000
1268.000000 1240.000000 -708.000000
1268.000000 1238.000000 -708.000000
1268.000000 1236.000000 -708.000000
1268.000000 1234.000000 -708.000000
1268.000000 1232.000000 -708.000000
1268.000000 1230.000000 -708.000000
1268.000000 1228.000000 -708.000000
1268.000000 1226.000000 -708.000000
1268.000000 1224.000000 -708.000000
1268.000000 1222.000000 -708.000000
1268.000000 1220.000000 -708.000000
1268.000000 1218.000000 -708.000000
1268.000000 1216.000000 -708.000000
1268.000000 1214.000000 -708.000000
1268.000000 1212.000000 -708.000000
1268.000000 1210.000000 -708.000000
1268.000000 1208.000000 -708.000000
1268.000000 1206.000000 -708.000000
1268.000000 1204.000000 -708.000000
1268.000000 1202.000000 -708.000000
1268.000000 1200.000000 -708.000000
1268.000000 1198.000000 -708.000000
1268.000000 1196.000000 -708.000000
1268.000000 1194.000000 -708.000000
1268.000000 1192.000000 -708.000000
1268.000000 1190.000000 -708.000000
1268.000000 1188.000000 -708.000000
1268.000000 1186.000000 -708.000000
1268.000000 1184.000000 -708.000000
1268.000000 1182.000000 -708.000000
1268.000000 1180.000000 -708.000000
1268.000000 1178.000000 -708.000000
1268.000000 1176.000000 -708.000000
1268.000000 1174.000000 -708.000000
1268.000000 1172.000000 -708.000000
1268.000000 1170.000000 -708.000000
1268.000000 1168.000000 -708.000000
1268.000000 1166.000000 -708.000000
1268.000000 1164.000000 -708.000000
1268.000000 1162.000000 -708.000000
1268.000000 1160.000000 -708.000000
1268.000000 1158.000000 -708.000000
1268.000000 1156.000000 -708.000000
1268.000000 1154.000000 -708.000000
1268.000000 1152.000000 -708.000000
1268.000000 1150.000000 -708.000000
1268.000000 1148.000000 -708.000000
1268.000000 1146.000000 -708.000000
1268.000000 1144.000000 -708.000000
1268.000000 1142.000000 -708.000000
1268.000000 1140.000000 -708.000000
1268.000000 1138.000000 -708.000000
1268.000000 1136.000000 -708.000000
1268.000000 1134.000000 -708.000000
1268.000000 1132.000000 -708.000000
1268.000000 1130.000000 -708.000000
1268.000000 1128.000000 -708.000000
1268.000000 1126.000000 -708.000000
1268.000000 1124.000000 -708.000000
1268.000000 1122.000000 -708.000000
1268.000000 1120.000000 -708.000000
1268.000000 1118.000000 -708.000000
1268.000000 1116.000000 -708.000000
1268.000000 1114.000000 -708.000000
1268.000000 1112.000000 -708.000000
1268.000000 1110.000000 -708.000000
1268.000000 1108.000000 -708.000000
1268.000000 1106.000000 -708.000000
1268.000000 1104.000000 -708.000000
1268.000000 1102.000000 -708.000000
1268.000000 1100.000000 -708.000000
1268.000000 1098.000000 -708.000000
1268.000000 1096.000000 -708.000000
1268.000000 1094.000000 -708.000000
1268.000000 1092.000000 -708.000000
1268.000000 1089.000000 -708.000000
1267.834343 1087.007974 -708.066263
1267.668686 1085.015948 -708.132526
1267.503029 1083.023922 -708.198788
1267.337372 1081.031897 -708.265051
1267.171715 1079.039871 -708.331314
1267.006058 1077.047845 -708.397577
1266.840401 1075.055819 -708.463840
1266.674744 1073.063793 -708.530103
1266.509087 1071.071767 -708.596365
1266.343430 1069.079742 -708.662628
1266.177773 1067.087716 -708.728891
1266.012116 1065.095690 -708.795154
1265.846459 1063.103664 -708.861417
1265.680802 1061.111638 -708.927679
1265.515144 1059.119612 -708.993942
1265.349487 1057.127586 -709.060205
1265.183830 1055.135561 -709.126468
1265.018173 1053.143535 -709.192731
1264.852516 1051.151509 -709.258993
1264.686859 1049.159483 -709.325256
1264.521202 1047.167457 -709.391519
1264.355545 1045.175431 -709.457782
1264.189888 1043.183405 -709.524045
1264.024231 1041.191380 -709.590308
1263.858574 1039.199354 -709.656570
1263.692917 1037.207328 -709.722833
1263.527260 1035.215302 -709.789096
1263.361603 1033.223276 -709.855359
1263.195946 1031.231250 -709.921622
1263.030289 1029.239225 -709.987884
1262.864632 1027.247199 -710.054147
1262.698975 1025.255173 -710.120410
1262.533318 1023.263147 -710.186673
1262.367661 1021.271121 -710.252936
1262.202004 1019.279095 -710.319198
1262.036347 1017.287069 -710.385461
1261.870690 1015.295044 -710.451724
1261.705033 1013.303018 -710.517987
1261.539376 1011.310992 -710.584250
1261.373719 1009.318966 -710.650513
1261.208062 1007.326940 -710.716775
1261.042405 1005.334914 -710.783038
1260.876747 1003.342888 -710.849301
1260.711090 1001.350863 -710.915564
1260.545433 999.358837 -710.981827
1260.379776 997.366811 -711.048089
1260.214119 995.374785 -711.114352
1260.048462 993.382759 -711.180615
1259.882805 991.390733 -711.246878
1259.717148 989.398708 -711.313141
1259.551491 987.406682 -711.379404
1259.385834 985.414656 -711.445666
1259.220177 983.422630 -711.511929
1259.054520 981.430604 -711.578192
1258.888863 979.438578 -711.644455
1258.723206 977.446552 -711.710718
1258.557549 975.454527 -711.776980
1258.391892 973.462501 -711.843243
1258.226235 971.470475 -711.909506
1258.060578 969.478449 -711.975769
1257.894921 967.486423 -712.042032
1257.729264 965.494397 -712.108294
1257.563607 963.502371 -712.174557
1257.397950 961.510346 -712.240820
1257.232293 959.518320 -712.307083
1257.066636 957.526294 -712.373346
1256.900979 955.534268 -712.439609
1256.735322 953.542242 -712.505871
1256.569665 951.550216 -712.572134
1256.404008 949.558191 -712.638397
1256.238350 947.566165 -712.704660
1256.072693 945.574139 -712.770923
1255.907036 943.582113 -712.837185
1255.741379 941.590087 -712.903448
1255.575722 939.598061 -712.969711
1255.410065 937.606035 -713.035974
1255.244408 935.614010 -713.102237
1255.078751 933.621984 -713.168500
1254.913094 931.629958 -713.234762
1254.747437 929.637932 -713.301025
1254.581780 927.645906 -713.367288
1254.416123 925.653880 -713.433551
1254.250466 923.661854 -713.499814
1254.084809 921.669829 -713.566076
1253.919152 919.677803 -713.632339
1253.753495 917.685777 -713.698602
1253.587838 915.693751 -713.764865
1253.422181 913.701725 -713.831128
1253.256524 911.709699 -713.897390
1253.090867 909.717674 -713.963653
1252.925210 907.725648 -714.029916
1252.759553 905.733622 -714.096179
1252.593896 903.741596 -714.162442
1252.428239 901.749570 -714.228705
1252.262582 899.757544 -714.294967
1252.096925 897.765518 -714.361230
1251.931268 895.773493 -714.427493
1251.765611 893.781467 -714.493756
1251.599954 891.789441 -714.560019
1251.434296 889.797415 -714.626281
1251.268639 887.805389 -714.692544
1251.102982 885.813363 -714.758807
1250.937325 883.821337 -714.825070
1250.771668 881.829312 -714.891333
1250.606011 879.837286 -714.957595
1250.440354 877.845260 -715.023858
1250.274697 875.853234 -715.090121
1250.109040 873.861208 -715.156384
1249.943383 871.869182 -715.222647
1249.777726 869.877157 -715.288910
1249.612069 867.885131 -715.355172
1249.446412 865.893105 -715.421435
1249.280755 863.901079 -715.487698
1249.115098 861.909053 -715.553961
1248.949441 859.917027 -715.620224
1248.783784 857.925001 -715.686486
1248.618127 855.932976 -715.752749
1248.452470 853.940950 -715.819012
1248.286813 851.948924 -715.885275
1248.000000 848.500000 -716.000000
1246.133810 847.780739 -716.000000
1244.267621 847.061479 -716.000000
1242.401431 846.342218 -716.000000
1240.535241 845.622957 -716.000000
1238.669051 844.903697 -716.000000
1236.802862 844.184436 -716.000000
1234.936672 843.465176 -716.000000
1233.070482 842.745915 -716.000000
1231.204292 842.026654 -716.000000
1229.338103 841.307394 -716.000000
1227.471913 840.588133 -716.000000
1225.605723 839.868872 -716.000000
1223.739533 839.149612 -716.000000
1221.873344 838.430351 -716.000000
1220.007154 837.711091 -716.000000
1218.140964 836.991830 -716.000000
1216.274774 836.272569 -716.000000
1214.408585 835.553309 -716.000000
1212.542395 834.834048 -716.000000
1210.676205 834.114787 -716.000000
1208.810015 833.395527 -716.000000
1206.943826 832.676266 -716.000000
1205.077636 831.957006 -716.000000
1203.211446 831.237745 -716.000000
1201.345256 830.518484 -716.000000
1199.479067 829.799224 -716.000000
1197.612877 829.079963 -716.000000
1195.746687 828.360702 -716.000000
1193.880498 827.641442 -716.000000
1192.014308 826.922181 -716.000000
1190.148118 826.202920 -716.000000
1188.281928 825.483660 -716.000000
1186.415739 824.764399 -716.000000
1184.549549 824.045139 -716.000000
1182.683359 823.325878 -716.000000
1180.817169 822.606617 -716.000000
1178.950980 821.887357 -716.000000
1177.084790 821.168096 -716.000000
1175.218600 820.448835 -716.000000
1173.352410 819.729575 -716.000000
1171.486221 819.010314 -716.000000
1169.620031 818.291054 -716.000000
1167.753841 817.571793 -716.000000
1165.887651 816.852532 -716.000000
1164.021462 816.133272 -716.000000
1162.155272 815.414011 -716.000000
1160.289082 814.694750 -716.000000
1158.422892 813.975490 -716.000000
1156.556703 813.256229 -716.000000
1154.690513 812.536969 -716.000000
1152.824323 811.817708 -716.000000
1150.958133 811.098447 -716.000000
1149.091944 810.379187 -716.000000
1147.225754 809.659926 -716.000000
1145.359564 808.940665 -716.000000
1143.493375 808.221405 -716.000000
1141.627185 807.502144 -716.000000
1139.760995 806.782884 -716.000000
1137.894805 806.063623 -716.000000
1136.028616 805.344362 -716.000000
1134.162426 804.625102 -716.000000
1132.296236 803.905841 -716.000000
1130.430046 803.186580 -716.000000
1128.563857 802.467320 -716.000000
1126.697667 801.748059 -716.000000
1124.831477 801.028798 -716.000000
1122.965287 800.309538 -716.000000
1121.099098 799.590277 -716.000000
1119.232908 798.871017 -716.000000
1117.366718 798.151756 -716.000000
1115.500528 797.432495 -716.000000
1113.634339 796.713235 -716.000000
1111.768149 795.993974 -716.000000
1109.901959 795.274713 -716.000000
1108.035769 794.555453 -716.000000
1106.169580 793.836192 -716.000000
1104.303390 793.116932 -716.000000
1102.437200 792.397671 -716.000000
1100.571011 791.678410 -716.000000
1098.704821 790.959150 -716.000000
1096.838631 790.239889 -716.000000
1094.972441 789.520628 -716.000000
1093.106252 788.801368 -716.000000
1091.240062 788.082107 -716.000000
1089.373872 787.362847 -716.000000
1087.507682 786.643586 -716.000000
1085.641493 785.924325 -716.000000
1083.775303 785.205065 -716.000000
1081.909113 784.485804 -716.000000
1080.042923 783.766543 -716.000000
1078.176734 783.047283 -716.000000
1076.310544 782.328022 -716.000000
1074.444354 781.608761 -716.000000
1072.578164 780.889501 -716.000000
1070.711975 780.170240 -716.000000
1068.845785 779.450980 -716.000000
1066.979595 778.731719 -716.000000
1065.113405 778.012458 -716.000000
1063.247216 777.293198 -716.000000
1061.381026 776.573937 -716.000000
1059.514836 775.854676 -716.000000
1057.648646 775.135416 -716.000000
1055.782457 774.416155 -716.000000
1053.916267 773.696895 -716.000000
1052.050077 772.977634 -716.000000
1050.183888 772.258373 -716.000000
1048.317698 771.539113 -716.000000
1046.451508 770.819852 -716.000000
1044.585318 770.100591 -716.000000
1042.719129 769.381331 -716.000000
1040.852939 768.662070 -716.000000
1038.986749 767.942810 -716.000000
1037.120559 767.223549 -716.000000
1035.254370 766.504288 -716.000000
1033.388180 765.785028 -716.000000
1031.521990 765.065767 -716.000000
1029.655800 764.346506 -716.000000
1027.789611 763.627246 -716.000000
1025.923421 762.907985 -716.000000
1024.057231 762.188725 -716.000000
1022.191041 761.469464 -716.000000
1020.324852 760.750203 -716.000000
1018.458662 760.030943 -716.000000
1016.592472 759.311682 -716.000000
1014.726282 758.592421 -716.000000
1012.860093 757.873161 -716.000000
1010.993903 757.153900 -716.000000
1009.127713 756.434639 -716.000000
1007.261523 755.715379 -716.000000
1005.395334 754.996118 -716.000000
1003.529144 754.276858 -716.000000
1001.662954 753.557597 -716.000000
999.796765 752.838336 -716.000000
997.930575 752.119076 -716.000000
996.064385 751.399815 -716.000000
994.198195 750.680554 -716.000000
992.332006 749.961294 -716.000000
990.465816 749.242033 -716.000000
988.599626 748.522773 -716.000000
986.733436 747.803512 -716.000000
984.867247 747.084251 -716.000000
983.001057 746.364991 -716.000000
981.134867 745.645730 -716.000000
979.268677 744.926469 -716.000000
977.402488 744.207209 -716.000000
975.536298 743.487948 -716.000000
973.670108 742.768688 -716.000000
971.803918 742.049427 -716.000000
969.937729 741.330166 -716.000000
968.071539 740.610906 -716.000000
966.205349 739.891645 -716.000000
964.339159 739.172384 -716.000000
962.472970 738.453124 -716.000000
960.606780 737.733863 -716.000000
958.740590 737.014602 -716.000000
956.874400 736.295342 -716.000000
955.008211 735.576081 -716.000000
953.142021 734.856821 -716.000000
951.275831 734.137560 -716.000000
949.409642 733.418299 -716.000000
947.543452 732.699039 -716.000000
945.677262 731.979778 -716.000000
943.811072 731.260517 -716.000000
941.944883 730.541257 -716.000000
940.078693 729.821996 -716.000000
938.212503 729.102736 -716.000000
936.346313 728.383475 -716.000000
934.480124 727.664214 -716.000000
932.613934 726.944954 -716.000000
930.747744 726.225693 -716.000000
928.881554 725.506432 -716.000000
927.015365 724.787172 -716.000000
925.149175 724.067911 -716.000000
923.282985 723.348651 -716.000000
921.416795 722.629390 -716.000000
919.550606 721.910129 -716.000000
917.684416 721.190869 -716.000000
915.818226 720.471608 -716.000000
913.952036 719.752347 -716.000000
912.085847 719.033087 -716.000000
910.219657 718.313826 -716.000000
908.353467 717.594565 -716.000000
906.487277 716.875305 -716.000000
904.621088 716.156044 -716.000000
902.754898 715.436784 -716.000000
900.888708 714.717523 -716.000000
899.022519 713.998262 -716.000000
897.156329 713.279002 -716.000000
895.290139 712.559741 -716.000000
893.423949 711.840480 -716.000000
891.557760 711.121220 -716.000000
889.691570 710.401959 -716.000000
887.825380 709.682699 -716.000000
885.959190 708.963438 -716.000000
884.093001 708.244177 -716.000000
882.226811 707.524917 -716.000000
880.360621 706.805656 -716.000000
878.494431 706.086395 -716.000000
876.628242 705.367135 -716.000000
874.762052 704.647874 -716.000000
872.895862 703.928614 -716.000000
871.029672 703.209353 -716.000000
869.163483 702.490092 -716.000000
867.297293 701.770832 -716.000000
865.431103 701.051571 -716.000000
863.564913 700.332310 -716.000000
861.698724 699.613050 -716.000000
859.832534 698.893789 -716.000000
857.966344 698.174529 -716.000000
856.100155 697.455268 -716.000000
854.233965 696.736007 -716.000000
852.367775 696.016747 -716.000000
850.501585 695.297486 -716.000000
848.635396 694.578225 -716.000000
846.769206 693.858965 -716.000000
844.903016 693.139704 -716.000000
843.036826 692.420443 -716.000000
841.170637 691.701183 -716.000000
839.304447 690.981922 -716.000000
837.438257 690.262662 -716.000000
835.572067 689.543401 -716.000000
833.705878 688.824140 -716.000000
831.839688 688.104880 -716.000000
829.973498 687.385619 -716.000000
828.107308 686.666358 -716.000000
826.241119 685.947098 -716.000000
824.374929 685.227837 -716.000000
822.508739 684.508577 -716.000000
820.642549 683.789316 -716.000000
818.776360 683.070055 -716.000000
816.910170 682.350795 -716.000000
815.043980 681.631534 -716.000000
813.177790 680.912273 -716.000000
811.311601 680.193013 -716.000000
809.445411 679.473752 -716.000000
807.579221 678.754492 -716.000000
805.713032 678.035231 -716.000000
803.846842 677.315970 -716.000000
801.980652 676.596710 -716.000000
800.114462 675.877449 -716.000000
798.248273 675.158188 -716.000000
796.382083 674.438928 -716.000000
794.515893 673.719667 -716.000000
792.649703 673.000406 -716.000000
790.783514 672.281146 -716.000000
788.917324 671.561885 -716.000000
787.051134 670.842625 -716.000000
785.184944 670.123364 -716.000000
783.318755 669.404103 -716.000000
781.452565 668.684843 -716.000000
779.586375 667.965582 -716.000000
777.720185 667.246321 -716.000000
775.853996 666.527061 -716.000000
773.987806 665.807800 -716.000000
772.121616 665.088540 -716.000000
770.255426 664.369279 -716.000000
768.389237 663.650018 -716.000000
766.523047 662.930758 -716.000000
764.656857 662.211497 -716.000000
762.790667 661.492236 -716.000000
760.924478 660.772976 -716.000000
759.058288 660.053715 -716.000000
757.192098 659.334455 -716.000000
755.325909 658.615194 -716.000000
753.459719 657.895933 -716.000000
751.593529 657.176673 -716.000000
749.727339 656.457412 -716.000000
747.861150 655.738151 -716.000000
745.994960 655.018891 -716.000000
744.128770 654.299630 -716.000000
742.262580 653.580370 -716.000000
740.396391 652.861109 -716.000000
738.530201 652.141848 -716.000000
736.664011 651.422588 -716.000000
734.797821 650.703327 -716.000000
732.931632 649.984066 -716.000000
731.065442 649.264806 -716.000000
729.199252 648.545545 -716.000000
727.333062 647.826284 -716.000000
725.466873 647.107024 -716.000000
723.600683 646.387763 -716.000000
721.734493 645.668503 -716.000000
719.868303 644.949242 -716.000000
718.002114 644.229981 -716.000000
716.135924 643.510721 -716.000000
714.269734 642.791460 -716.000000
712.403544 642.072199 -716.000000
710.537355 641.352939 -716.000000
708.671165 640.633678 -716.000000
706.804975 639.914418 -716.000000
704.938786 639.195157 -716.000000
703.072596 638.475896 -716.000000
701.206406 637.756636 -716.000000
699.340216 637.037375 -716.000000
697.474027 636.318114 -716.000000
695.607837 635.598854 -716.000000
693.741647 634.879593 -716.000000
691.875457 634.160333 -716.000000
690.009268 633.441072 -716.000000
