16.000000 50.000000 56.000000
14.589734 49.943589 57.417028
13.179468 49.887179 58.834055
11.769202 49.830768 60.251083
10.358936 49.774357 61.668111
8.948670 49.717947 63.085139
7.538404 49.661536 64.502166
6.128138 49.605126 65.919194
4.717872 49.548715 67.336222
3.307606 49.492304 68.753250
1.897340 49.435894 70.170277
0.487074 49.379483 71.587305
-0.923192 49.323072 73.004333
-2.333458 49.266662 74.421361
-3.743724 49.210251 75.838388
-5.153990 49.153840 77.255416
-6.564256 49.097430 78.672444
-7.974522 49.041019 80.089472
-9.384788 48.984608 81.506499
-10.795054 48.928198 82.923527
-12.205320 48.871787 84.340555
-13.615586 48.815377 85.757583
-15.025852 48.758966 87.174610
-16.436118 48.702555 88.591638
-17.846384 48.646145 90.008666
-19.256650 48.589734 91.425694
-20.666916 48.533323 92.842721
-22.077182 48.476913 94.259749
-23.487448 48.420502 95.676777
-24.897714 48.364091 97.093805
-26.307980 48.307681 98.510832
-27.718246 48.251270 99.927860
-29.128512 48.194860 101.344888
-30.538778 48.138449 102.761916
-31.949044 48.082038 104.178943
-34.000000 48.000000 106.239733
-35.960070 48.000000 105.842084
-37.920141 48.000000 105.444435
-39.880211 48.000000 105.046786
-41.840281 48.000000 104.649137
-43.800351 48.000000 104.251489
-45.760422 48.000000 103.853840
-47.720492 48.000000 103.456191
-49.680562 48.000000 103.058542
-51.640632 48.000000 102.660893
-53.600703 48.000000 102.263244
-55.560773 48.000000 101.865596
-57.520843 48.000000 101.467947
-59.480913 48.000000 101.070298
-61.440984 48.000000 100.672649
-63.401054 48.000000 100.275000
-65.361124 48.000000 99.877351
-67.321194 48.000000 99.479703
-69.281265 48.000000 99.082054
-71.241335 48.000000 98.684405
-73.201405 48.000000 98.286756
-75.161475 48.000000 97.889107
-77.121546 48.000000 97.491458
-79.081616 48.000000 97.093809
-81.041686 48.000000 96.696161
-83.001756 48.000000 96.298512
-84.961827 48.000000 95.900863
-86.921897 48.000000 95.503214
-88.881967 48.000000 95.105565
-90.842037 48.000000 94.707916
-92.802108 48.000000 94.310268
-94.762178 48.000000 93.912619
-96.722248 48.000000 93.514970
-98.682318 48.000000 93.117321
-100.642389 48.000000 92.719672
-102.602459 48.000000 92.322023
-104.562529 48.000000 91.924374
-106.522599 48.000000 91.526726
-108.482670 48.000000 91.129077
-110.442740 48.000000 90.731428
-112.402810 48.000000 90.333779
-114.362880 48.000000 89.936130
-116.322951 48.000000 89.538481
-118.283021 48.000000 89.140833
-120.243091 48.000000 88.743184
-122.203161 48.000000 88.345535
-124.163232 48.000000 87.947886
-126.123302 48.000000 87.550237
-128.083372 48.000000 87.152588
-130.043442 48.000000 86.754939
-132.003513 48.000000 86.357291
-133.963583 48.000000 85.959642
-135.923653 48.000000 85.561993
-137.883723 48.000000 85.164344
-139.843794 48.000000 84.766695
-141.803864 48.000000 84.369046
-143.763934 48.000000 83.971398
-145.724004 48.000000 83.573749
-147.684075 48.000000 83.176100
-149.644145 48.000000 82.778451
-151.604215 48.000000 82.380802
-153.564285 48.000000 81.983153
-155.524356 48.000000 81.585505
-157.484426 48.000000 81.187856
-159.444496 48.000000 80.790207
-161.404566 48.000000 80.392558
-163.364637 48.000000 79.994909
-165.324707 48.000000 79.597260
-167.284777 48.000000 79.199611
-169.244847 48.000000 78.801963
-171.204918 48.000000 78.404314
-173.164988 48.000000 78.006665
-175.125058 48.000000 77.609016
-177.085128 48.000000 77.211367
-179.045199 48.000000 76.813718
-181.005269 48.000000 76.416070
-182.965339 48.000000 76.018421
-184.925409 48.000000 75.620772
-186.885480 48.000000 75.223123
-188.845550 48.000000 74.825474
-190.805620 48.000000 74.427825
-192.765690 48.000000 74.030176
-194.725761 48.000000 73.632528
-196.685831 48.000000 73.234879
-198.645901 48.000000 72.837230
-200.605972 48.000000 72.439581
-202.566042 48.000000 72.041932
-204.526112 48.000000 71.644283
-206.486182 48.000000 71.246635
-208.446253 48.000000 70.848986
-210.406323 48.000000 70.451337
-212.366393 48.000000 70.053688
-214.326463 48.000000 69.656039
-216.286534 48.000000 69.258390
-218.246604 48.000000 68.860742
-220.206674 48.000000 68.463093
-222.166744 48.000000 68.065444
-224.126815 48.000000 67.667795
-226.086885 48.000000 67.270146
-228.046955 48.000000 66.872497
-230.007025 48.000000 66.474848
-231.967096 48.000000 66.077200
-233.927166 48.000000 65.679551
-235.887236 48.000000 65.281902
-237.847306 48.000000 64.884253
-239.807377 48.000000 64.486604
-241.767447 48.000000 64.088955
-243.727517 48.000000 63.691307
-245.687587 48.000000 63.293658
-247.647658 48.000000 62.896009
-249.607728 48.000000 62.498360
-251.567798 48.000000 62.100711
-253.527868 48.000000 61.703062
-255.487939 48.000000 61.305413
-257.448009 48.000000 60.907765
-259.408079 48.000000 60.510116
-261.368149 48.000000 60.112467
-263.328220 48.000000 59.714818
-265.288290 48.000000 59.317169
-267.248360 48.000000 58.919520
-269.208430 48.000000 58.521872
-271.168501 48.000000 58.124223
-273.128571 48.000000 57.726574
-275.088641 48.000000 57.328925
-277.048711 48.000000 56.931276
-279.008782 48.000000 56.533627
-280.968852 48.000000 56.135978
-282.928922 48.000000 55.738330
-284.888992 48.000000 55.340681
-286.849063 48.000000 54.943032
-288.809133 48.000000 54.545383
-290.769203 48.000000 54.147734
-292.729273 48.000000 53.750085
-294.689344 48.000000 53.352437
-296.649414 48.000000 52.954788
-298.609484 48.000000 52.557139
-300.569554 48.000000 52.159490
-302.529625 48.000000 51.761841
-304.489695 48.000000 51.364192
-306.449765 48.000000 50.966544
-308.409835 48.000000 50.568895
-310.369906 48.000000 50.171246
-312.329976 48.000000 49.773597
-314.290046 48.000000 49.375948
-316.250116 48.000000 48.978299
-318.210187 48.000000 48.580650
-320.170257 48.000000 48.183002
-322.130327 48.000000 47.785353
-324.090397 48.000000 47.387704
-326.050468 48.000000 46.990055
-328.010538 48.000000 46.592406
-329.970608 48.000000 46.194757
-331.930678 48.000000 45.797109
-333.890749 48.000000 45.399460
-335.850819 48.000000 45.001811
-337.810889 48.000000 44.604162
-339.770959 48.000000 44.206513
-341.731030 48.000000 43.808864
-343.691100 48.000000 43.411215
-345.651170 48.000000 43.013567
-347.611240 48.000000 42.615918
-349.571311 48.000000 42.218269
-351.531381 48.000000 41.820620
-353.491451 48.000000 41.422971
-355.451521 48.000000 41.025322
-357.411592 48.000000 40.627674
-359.371662 48.000000 40.230025
-361.331732 48.000000 39.832376
-363.291802 48.000000 39.434727
-365.251873 48.000000 39.037078
-367.211943 48.000000 38.639429
-369.172013 48.000000 38.241780
-371.132084 48.000000 37.844132
-373.092154 48.000000 37.446483
-375.052224 48.000000 37.048834
-377.012294 48.000000 36.651185
-378.972365 48.000000 36.253536
-380.932435 48.000000 35.855887
-382.892505 48.000000 35.458239
-384.852575 48.000000 35.060590
-386.812646 48.000000 34.662941
-388.772716 48.000000 34.265292
-390.732786 48.000000 33.867643
-392.692856 48.000000 33.469994
-394.652927 48.000000 33.072346
-396.612997 48.000000 32.674697
-398.573067 48.000000 32.277048
-400.533137 48.000000 31.879399
-402.493208 48.000000 31.481750
-404.453278 48.000000 31.084101
-406.413348 48.000000 30.686452
-408.373418 48.000000 30.288804
-410.333489 48.000000 29.891155
-412.293559 48.000000 29.493506
-414.253629 48.000000 29.095857
-416.213699 48.000000 28.698208
-418.173770 48.000000 28.300559
-420.133840 48.000000 27.902911
-422.093910 48.000000 27.505262
-424.053980 48.000000 27.107613
-426.014051 48.000000 26.709964
-427.974121 48.000000 26.312315
-429.934191 48.000000 25.914666
-431.894261 48.000000 25.517017
-433.854332 48.000000 25.119369
-435.814402 48.000000 24.721720
-437.774472 48.000000 24.324071
-439.734542 48.000000 23.926422
-441.694613 48.000000 23.528773
-443.654683 48.000000 23.131124
-445.614753 48.000000 22.733476
-447.574823 48.000000 22.335827
-449.534894 48.000000 21.938178
-451.494964 48.000000 21.540529
-453.455034 48.000000 21.142880
-455.415104 48.000000 20.745231
-457.375175 48.000000 20.347582
-459.335245 48.000000 19.949934
-461.295315 48.000000 19.552285
-463.255385 48.000000 19.154636
-465.215456 48.000000 18.756987
-467.175526 48.000000 18.359338
-469.135596 48.000000 17.961689
-471.095666 48.000000 17.564041
-473.055737 48.000000 17.166392
-475.015807 48.000000 16.768743
-476.975877 48.000000 16.371094
-480.000000 48.000000 15.757576
-480.592910 46.089907 15.755873
-481.185821 44.179815 15.754171
-481.778731 42.269722 15.752469
-482.371642 40.359629 15.750766
-482.964552 38.449536 15.749064
-483.557463 36.539444 15.747361
-484.150373 34.629351 15.745659
-484.743284 32.719258 15.743957
-485.336194 30.809165 15.742254
-485.929105 28.899073 15.740552
-486.522015 26.988980 15.738849
-487.114926 25.078887 15.737147
-487.707836 23.168794 15.735445
-488.300747 21.258702 15.733742
-488.893657 19.348609 15.732040
-489.486568 17.438516 15.730337
-490.079478 15.528424 15.728635
-490.672389 13.618331 15.726933
-491.265299 11.708238 15.725230
-491.858210 9.798145 15.723528
-492.451120 7.888053 15.721825
-493.044031 5.977960 15.720123
-493.636941 4.067867 15.718421
-494.229852 2.157774 15.716718
-494.822762 0.247682 15.715016
-495.415673 -1.662411 15.713313
-496.008583 -3.572504 15.711611
-496.601494 -5.482597 15.709909
-497.194404 -7.392689 15.708206
-497.787315 -9.302782 15.706504
-498.380225 -11.212875 15.704801
-498.973136 -13.122968 15.703099
-499.566046 -15.033060 15.701397
-500.158957 -16.943153 15.699694
-500.751867 -18.853246 15.697992
-501.344778 -20.763338 15.696289
-501.937688 -22.673431 15.694587
-502.530599 -24.583524 15.692885
-503.123509 -26.493617 15.691182
-503.716420 -28.403709 15.689480
-504.309330 -30.313802 15.687777
-504.902240 -32.223895 15.686075
-505.495151 -34.133988 15.684373
-506.088061 -36.044080 15.682670
-506.680972 -37.954173 15.680968
-507.273882 -39.864266 15.679265
-507.866793 -41.774359 15.677563
-508.459703 -43.684451 15.675861
-509.052614 -45.594544 15.674158
-509.645524 -47.504637 15.672456
-510.238435 -49.414729 15.670753
-510.831345 -51.324822 15.669051
-511.424256 -53.234915 15.667349
-512.017166 -55.145008 15.665646
-512.610077 -57.055100 15.663944
-513.202987 -58.965193 15.662241
-513.795898 -60.875286 15.660539
-514.388808 -62.785379 15.658837
-514.981719 -64.695471 15.657134
-515.574629 -66.605564 15.655432
-516.167540 -68.515657 15.653729
-516.760450 -70.425750 15.652027
-517.353361 -72.335842 15.650325
-517.946271 -74.245935 15.648622
-518.539182 -76.156028 15.646920
-519.132092 -78.066120 15.645217
-519.725003 -79.976213 15.643515
-520.317913 -81.886306 15.641813
-520.910824 -83.796399 15.640110
-521.503734 -85.706491 15.638408
-522.096645 -87.616584 15.636705
-522.689555 -89.526677 15.635003
-523.282466 -91.436770 15.633301
-523.875376 -93.346862 15.631598
-524.468287 -95.256955 15.629896
-525.061197 -97.167048 15.628193
-525.654108 -99.077141 15.626491
-526.247018 -100.987233 15.624789
-526.839929 -102.897326 15.623086
-527.432839 -104.807419 15.621384
-528.025750 -106.717512 15.619681
-528.618660 -108.627604 15.617979
-529.211571 -110.537697 15.616277
-529.804481 -112.447790 15.614574
-530.397391 -114.357882 15.612872
-530.990302 -116.267975 15.611169
-531.583212 -118.178068 15.609467
-532.176123 -120.088161 15.607765
-532.769033 -121.998253 15.606062
-533.361944 -123.908346 15.604360
-533.954854 -125.818439 15.602657
-534.547765 -127.728532 15.600955
-535.140675 -129.638624 15.599253
-535.733586 -131.548717 15.597550
-536.326496 -133.458810 15.595848
-536.919407 -135.368903 15.594145
-537.512317 -137.278995 15.592443
-538.105228 -139.189088 15.590741
-538.698138 -141.099181 15.589038
-539.291049 -143.009273 15.587336
-539.883959 -144.919366 15.585633
-540.476870 -146.829459 15.583931
-541.069780 -148.739552 15.582229
-541.662691 -150.649644 15.580526
-542.255601 -152.559737 15.578824
-542.848512 -154.469830 15.577121
-543.441422 -156.379923 15.575419
-544.034333 -158.290015 15.573717
-544.627243 -160.200108 15.572014
-545.220154 -162.110201 15.570312
-545.813064 -164.020294 15.568609
-546.405975 -165.930386 15.566907
-546.998885 -167.840479 15.565205
-547.591796 -169.750572 15.563502
-548.184706 -171.660664 15.561800
-548.777617 -173.570757 15.560097
-549.370527 -175.480850 15.558395
-549.963438 -177.390943 15.556693
-550.556348 -179.301035 15.554990
-551.149259 -181.211128 15.553288
-551.742169 -183.121221 15.551585
-552.335080 -185.031314 15.549883
-552.927990 -186.941406 15.548181
-553.520901 -188.851499 15.546478
-554.113811 -190.761592 15.544776
-554.706721 -192.671685 15.543073
-555.299632 -194.581777 15.541371
-555.892542 -196.491870 15.539669
-556.485453 -198.401963 15.537966
-557.078363 -200.312056 15.536264
-557.671274 -202.222148 15.534561
-558.264184 -204.132241 15.532859
-558.857095 -206.042334 15.531157
-559.450005 -207.952426 15.529454
-560.042916 -209.862519 15.527752
-560.635826 -211.772612 15.526049
-561.228737 -213.682705 15.524347
-561.821647 -215.592797 15.522645
-562.414558 -217.502890 15.520942
-563.007468 -219.412983 15.519240
-563.600379 -221.323076 15.517537
-564.431321 -224.000000 15.515152
-564.284972 -225.994188 15.472762
-564.138622 -227.988376 15.430372
-563.992273 -229.982563 15.387983
-563.845924 -231.976751 15.345593
-563.699575 -233.970939 15.303204
-563.553225 -235.965127 15.260814
-563.406876 -237.959315 15.218425
-563.260527 -239.953502 15.176035
-563.114178 -241.947690 15.133645
-562.967828 -243.941878 15.091256
-562.821479 -245.936066 15.048866
-562.675130 -247.930254 15.006477
-562.528781 -249.924442 14.964087
-562.382432 -251.918629 14.921698
-562.236082 -253.912817 14.879308
-562.089733 -255.907005 14.836918
-561.943384 -257.901193 14.794529
-561.797035 -259.895381 14.752139
-561.650685 -261.889568 14.709750
-561.504336 -263.883756 14.667360
-561.357987 -265.877944 14.624970
-561.211638 -267.872132 14.582581
-561.065288 -269.866320 14.540191
-560.918939 -271.860507 14.497802
-560.772590 -273.854695 14.455412
-560.626241 -275.848883 14.413023
-560.479891 -277.843071 14.370633
-560.333542 -279.837259 14.328243
-560.187193 -281.831446 14.285854
-560.040844 -283.825634 14.243464
-559.894494 -285.819822 14.201075
-559.748145 -287.814010 14.158685
-559.601796 -289.808198 14.116296
-559.455447 -291.802386 14.073906
-559.309097 -293.796573 14.031516
-559.162748 -295.790761 13.989127
-559.016399 -297.784949 13.946737
-558.870050 -299.779137 13.904348
-558.723700 -301.773325 13.861958
-558.577351 -303.767512 13.819569
-558.431002 -305.761700 13.777179
-558.284653 -307.755888 13.734789
-558.138303 -309.750076 13.692400
-557.991954 -311.744264 13.650010
-557.845605 -313.738451 13.607621
-557.699256 -315.732639 13.565231
-557.552906 -317.726827 13.522842
-557.406557 -319.721015 13.480452
-557.260208 -321.715203 13.438062
-557.113859 -323.709391 13.395673
-556.967509 -325.703578 13.353283
-556.821160 -327.697766 13.310894
-556.674811 -329.691954 13.268504
-556.528462 -331.686142 13.226115
-556.382112 -333.680330 13.183725
-556.235763 -335.674517 13.141335
-556.089414 -337.668705 13.098946
-555.943065 -339.662893 13.056556
-555.796715 -341.657081 13.014167
-555.650366 -343.651269 12.971777
-555.504017 -345.645456 12.929388
-555.357668 -347.639644 12.886998
-555.211318 -349.633832 12.844608
-555.064969 -351.628020 12.802219
-554.918620 -353.622208 12.759829
-554.772271 -355.616395 12.717440
-554.625921 -357.610583 12.675050
-554.479572 -359.604771 12.632661
-554.333223 -361.598959 12.590271
-554.186874 -363.593147 12.547881
-554.040525 -365.587335 12.505492
-553.894175 -367.581522 12.463102
-553.747826 -369.575710 12.420713
-553.601477 -371.569898 12.378323
-553.455128 -373.564086 12.335934
-553.308778 -375.558274 12.293544
-553.162429 -377.552461 12.251154
-553.016080 -379.546649 12.208765
-552.869731 -381.540837 12.166375
-552.723381 -383.535025 12.123986
-552.577032 -385.529213 12.081596
-552.430683 -387.523400 12.039207
-552.284334 -389.517588 11.996817
-552.137984 -391.511776 11.954427
-551.991635 -393.505964 11.912038
-551.845286 -395.500152 11.869648
-551.698937 -397.494339 11.827259
-551.552587 -399.488527 11.784869
-551.406238 -401.482715 11.742480
-551.259889 -403.476903 11.700090
-551.113540 -405.471091 11.657700
-550.967190 -407.465279 11.615311
-550.820841 -409.459466 11.572921
-550.674492 -411.453654 11.530532
-550.528143 -413.447842 11.488142
-550.381793 -415.442030 11.445753
-550.235444 -417.436218 11.403363
-550.089095 -419.430405 11.360973
-549.942746 -421.424593 11.318584
-549.796396 -423.418781 11.276194
-549.650047 -425.412969 11.233805
-549.503698 -427.407157 11.191415
-549.357349 -429.401344 11.149026
-549.210999 -431.395532 11.106636
-549.064650 -433.389720 11.064246
-548.918301 -435.383908 11.021857
-548.771952 -437.378096 10.979467
-548.625602 -439.372284 10.937078
-548.479253 -441.366471 10.894688
-548.332904 -443.360659 10.852299
-548.186555 -445.354847 10.809909
-548.040205 -447.349035 10.767519
-547.893856 -449.343223 10.725130
-547.747507 -451.337410 10.682740
-547.601158 -453.331598 10.640351
-547.454808 -455.325786 10.597961
-547.308459 -457.319974 10.555572
-547.162110 -459.314162 10.513182
-547.015761 -461.308349 10.470792
-546.869411 -463.302537 10.428403
-546.723062 -465.296725 10.386013
-546.576713 -467.290913 10.343624
-546.430364 -469.285101 10.301234
-546.284014 -471.279288 10.258845
-546.137665 -473.273476 10.216455
-545.991316 -475.267664 10.174065
-545.844967 -477.261852 10.131676
-545.698617 -479.256040 10.089286
-545.552268 -481.250228 10.046897
-545.405919 -483.244415 10.004507
-545.259570 -485.238603 9.962118
-545.113221 -487.232791 9.919728
-544.966871 -489.226979 9.877338
-544.820522 -491.221167 9.834949
-544.674173 -493.215354 9.792559
-544.527824 -495.209542 9.750170
-544.381474 -497.203730 9.707780
-544.235125 -499.197918 9.665391
-544.088776 -501.192106 9.623001
-543.942427 -503.186293 9.580611
-543.796077 -505.180481 9.538222
-543.649728 -507.174669 9.495832
-543.503379 -509.168857 9.453443
-543.357030 -511.163045 9.411053
-543.210680 -513.157232 9.368664
-543.064331 -515.151420 9.326274
-542.917982 -517.145608 9.283884
-542.771633 -519.139796 9.241495
-542.625283 -521.133984 9.199105
-542.478934 -523.128172 9.156716
-542.332585 -525.122359 9.114326
